ply
format ascii 1.0
element vertex 50
property float x
property float y
property float z
property float nx
property float ny
property float nz
end_header
0.00693281972780823708 -0.00159802730195224285 0.00702725443989038467 0 0 0
0.00274576549418270588 0.00324973161332309246 0.00904986262321472168 0 0 0
0.00830258149653673172 -0.00285969581454992294 -0.0047842743806540966 0 0 0
0.00299877161160111427 -0.00950829405337572098 0.000774403742980211973 0 0 0
-0.0884168818593025208 -0.437706798315048218 -0.894759833812713623 0 0 0
0.000741067866329103708 -0.000126343220472335815 0.000659436103887856007 0 0 0
-0.648708820343017578 -0.330150693655014038 -0.68569481372833252 0 0 0
0.241782039403915405 0.957204639911651611 0.159062027931213379 0 0 0
-0.00625167787075042725 -0.00494619319215416908 -0.00603752443566918373 0 0 0
0.336305350065231323 -0.570818483829498291 0.749042689800262451 0 0 0
-0.000976024952251464128 -0.000216142434510402381 -2.56466955761425197e-05 0 0 0
-0.000451488565886393189 0.000759292743168771267 -0.000468649843242019415 0 0 0
-6.89319494995288551e-05 0.000634546857327222824 0.000769804406445473433 0 0 0
0.691405951976776123 -0.603763997554779053 -0.39677053689956665 0 0 0
0.4447040855884552 0.787999093532562256 0.425788402557373047 0 0 0
5.24566130479797721e-05 -0.000632232811767607927 -0.000773000705521553755 0 0 0
-0.239018246531486511 0.967927157878875732 0.0773774906992912292 0 0 0
0.0683002546429634094 0.00323555059731006622 -0.0729699060320854187 0 0 0
-0.00073012372013181448 0.000135099122417159379 0.000669826578814536333 0 0 0
-0.0942924842238426208 -0.0310939233750104904 -0.0119203990325331688 0 0 0
0.00119992508552968502 -0.00790289696305990219 0.00600869348272681236 0 0 0
0.00973634887486696243 -0.000262051325989887118 0.0022660174872726202 0 0 0
-0.0479350350797176361 0.0227705966681241989 -0.084756903350353241 0 0 0
0.000626789696980267763 0.000323624262819066644 -0.000708803243469446898 0 0 0
-0.0477089583873748779 -0.0822806879878044128 0.0308827552944421768 0 0 0
0.0229923184961080551 0.0367760173976421356 -0.0901048183441162109 0 0 0
-0.00074511609273031354 -0.000447185680968686938 -0.000494800042361021042 0 0 0
0.0149132702499628067 0.0940852165222167969 -0.030423114076256752 0 0 0
-0.576060652732849121 0.100621700286865234 -0.811190128326416016 0 0 0
-0.00529693532735109329 0.00830041896551847458 -0.00174514157697558403 0 0 0
-0.00758761866018176079 0.00353480665944516659 -0.00547112198546528816 0 0 0
-0.00272903195582330227 -0.0170569457113742828 -0.0984967648983001709 0 0 0
0.0378219559788703918 0.056218612939119339 0.0735456869006156921 0 0 0
-0.00640958407893776894 -0.00722898542881011963 -0.00258050323463976383 0 0 0
-0.385413169860839844 0.586208224296569824 0.712612569332122803 0 0 0
0.00662923185154795647 0.00149853306356817484 -0.00733537180349230766 0 0 0
-0.202465653419494629 -0.84430992603302002 -0.496133476495742798 0 0 0
-0.0630676895380020142 0.00485623907297849655 0.0774524658918380737 0 0 0
0.000285004731267690659 -0.000366446998668834567 0.000885713845491409302 0 0 0
0.0405937694013118744 -0.0794418081641197205 -0.0451790317893028259 0 0 0
0.045978207141160965 -0.0569199025630950928 -0.0681625232100486755 0 0 0
-6.5415188146289438e-05 -0.000838747364468872547 0.000540577282663434744 0 0 0
0.374891787767410278 -0.852549314498901367 0.364164561033248901 0 0 0
-0.00549392588436603546 0.00452407309785485268 -0.00702492287382483482 0 0 0
0.00164529681205749512 0.00947640649974346161 -0.00273691536858677864 0 0 0
0.295375585556030273 -0.767789185047149658 0.568553447723388672 0 0 0
-0.625150382518768311 -0.40182766318321228 0.669119954109191895 0 0 0
0.0418310612440109253 0.0264843795448541641 0.0868834853172302246 0 0 0
4.40816220361739397e-05 -0.000781482725869864225 -0.000622367777395993471 0 0 0
-0.000967935484368354082 -0.00012006147881038487 -0.000220649482798762619 0 0 0
