0.000000 13.977826 0.000000 
-0.195090 13.709246 0.000000 
-0.382683 12.913827 0.000000 
-0.555570 11.622137 0.000000 
-0.707107 9.883816 0.000000 
-0.831470 7.765664 0.000000 
-0.923880 5.349083 0.000000 
-0.980785 2.726939 0.000000 
-1.000000 0.000000 0.000000 
-0.980785 -2.726939 0.000000 
-0.923880 -5.349083 0.000000 
-0.831470 -7.765664 0.000000 
-0.707107 -9.883816 0.000000 
-0.555570 -11.622137 0.000000 
-0.382683 -12.913827 0.000000 
-0.195090 -13.709246 0.000000 
0.000000 -13.977826 0.000000 
0.195090 -13.709246 0.000000 
0.382683 -12.913827 0.000000 
0.555570 -11.622137 0.000000 
0.707107 -9.883816 0.000000 
0.831470 -7.765664 0.000000 
0.923880 -5.349083 0.000000 
0.980785 -2.726939 0.000000 
1.000000 0.000000 0.000000 
0.980785 2.726939 0.000000 
0.923880 5.349083 0.000000 
0.831470 7.765664 0.000000 
0.707107 9.883816 0.000000 
0.555570 11.622137 0.000000 
0.382683 12.913827 0.000000 
0.195090 13.709246 0.000000 
0.000000 11.803069 -7.487802 
-0.195090 11.576276 -7.343926 
-0.382683 10.904613 -6.917827 
-0.555570 9.813893 -6.225880 
-0.707107 8.346030 -5.294675 
-0.831470 6.557434 -4.160000 
-0.923880 4.516840 -2.865458 
-0.980785 2.302665 -1.460798 
-0.980785 -2.302665 1.460798 
-0.923880 -4.516840 2.865458 
-0.831470 -6.557434 4.160000 
-0.707107 -8.346030 5.294675 
-0.555570 -9.813893 6.225880 
-0.382683 -10.904613 6.917827 
-0.195090 -11.576276 7.343926 
0.000000 -11.803069 7.487802 
0.195090 -11.576276 7.343926 
0.382683 -10.904613 6.917827 
0.555570 -9.813893 6.225880 
0.707107 -8.346030 5.294675 
0.831470 -6.557434 4.160000 
0.923880 -4.516840 2.865458 
0.980785 -2.302665 1.460798 
0.980785 2.302665 -1.460798 
0.923880 4.516840 -2.865458 
0.831470 6.557434 -4.160000 
0.707107 8.346030 -5.294675 
0.555570 9.813893 -6.225880 
0.382683 10.904613 -6.917827 
0.195090 11.576276 -7.343926 
0.000000 2.994374 -13.653328 
-0.195090 2.936838 -13.390983 
-0.382683 2.766441 -12.614030 
-0.555570 2.489731 -11.352327 
-0.707107 2.117342 -9.654361 
-0.831470 1.663585 -7.585383 
-0.923880 1.145897 -5.224903 
-0.980785 0.584173 -2.663632 
-0.980785 -0.584173 2.663632 
-0.923880 -1.145897 5.224903 
-0.831470 -1.663585 7.585383 
-0.707107 -2.117342 9.654361 
-0.555570 -2.489731 11.352327 
-0.382683 -2.766441 12.614030 
-0.195090 -2.936838 13.390983 
0.000000 -2.994374 13.653328 
0.195090 -2.936838 13.390983 
0.382683 -2.766441 12.614030 
0.555570 -2.489731 11.352327 
0.707107 -2.117342 9.654361 
0.831470 -1.663585 7.585383 
0.923880 -1.145897 5.224903 
0.980785 -0.584173 2.663632 
0.980785 0.584173 -2.663632 
0.923880 1.145897 -5.224903 
0.831470 1.663585 -7.585383 
0.707107 2.117342 -9.654361 
0.555570 2.489731 -11.352327 
0.382683 2.766441 -12.614030 
0.195090 2.936838 -13.390983 
0.000000 7.738211 -11.640435 
-0.195090 7.589523 -11.416767 
-0.382683 7.149174 -10.754359 
-0.555570 6.434087 -9.678668 
-0.707107 5.471741 -8.231030 
-0.831470 4.299119 -6.467080 
-0.923880 2.961285 -4.454602 
-0.980785 1.509650 -2.270936 
-0.980785 -1.509650 2.270936 
-0.923880 -2.961285 4.454602 
-0.831470 -4.299119 6.467080 
-0.707107 -5.471741 8.231030 
-0.555570 -6.434087 9.678668 
-0.382683 -7.149174 10.754359 
-0.195090 -7.589523 11.416767 
0.000000 -7.738211 11.640435 
0.195090 -7.589523 11.416767 
0.382683 -7.149174 10.754359 
0.555570 -6.434087 9.678668 
0.707107 -5.471741 8.231030 
0.831470 -4.299119 6.467080 
0.923880 -2.961285 4.454602 
0.980785 -1.509650 2.270936 
0.980785 1.509650 -2.270936 
0.923880 2.961285 -4.454602 
0.831470 4.299119 -6.467080 
0.707107 5.471741 -8.231030 
0.555570 6.434087 -9.678668 
0.382683 7.149174 -10.754359 
0.195090 7.589523 -11.416767 
0.000000 13.486944 -3.671779 
-0.195090 13.227796 -3.601227 
-0.382683 12.460311 -3.392281 
-0.555570 11.213984 -3.052973 
-0.707107 9.536710 -2.596340 
-0.831470 7.492945 -2.039931 
-0.923880 5.161231 -1.405129 
-0.980785 2.631172 -0.716329 
-0.980785 -2.631172 0.716329 
-0.923880 -5.161231 1.405129 
-0.831470 -7.492945 2.039931 
-0.707107 -9.536710 2.596340 
-0.555570 -11.213984 3.052973 
-0.382683 -12.460311 3.392281 
-0.195090 -13.227796 3.601227 
0.000000 -13.486944 3.671779 
0.195090 -13.227796 3.601227 
0.382683 -12.460311 3.392281 
0.555570 -11.213984 3.052973 
0.707107 -9.536710 2.596340 
0.831470 -7.492945 2.039931 
0.923880 -5.161231 1.405129 
0.980785 -2.631172 0.716329 
0.980785 2.631172 -0.716329 
0.923880 5.161231 -1.405129 
0.831470 7.492945 -2.039931 
0.707107 9.536710 -2.596340 
0.555570 11.213984 -3.052973 
0.382683 12.460311 -3.392281 
0.195090 13.227796 -3.601227 
