ply
format ascii 1.0
element vertex 500
property float x
property float y
property float z
property float nx
property float ny
property float nz
end_header
-0.557234 0.34768 0.0969065 -0.990441 -0.081943 -0.11096 
-0.115237 -1.01414 -0.212936 -0.084412 0.117992 -0.98942 
-0.520307 0.407676 0.348274 -0.888258 0.0479354 0.456837 
0.566105 0.393593 0.149705 0.999784 0.0198376 -0.00613305 
-0.0909781 -0.778312 0.231077 -0.080775 -0.378121 0.922225 
-0.0825888 0.262193 0.710834 -0.174313 0.0061167 0.984671 
0.120421 -0.667509 0.308097 0.00106019 -0.645254 0.763967 
-0.561678 0.448891 0.114105 -0.99263 0.0684135 -0.100026 
-0.174551 -0.924248 -0.18572 -0.239309 0.170521 -0.955852 
0.602556 0.0518915 0.191428 0.971975 -0.135885 0.191834 
0.369975 -0.158417 0.199466 0.711026 -0.593444 0.377181 
0.372744 -0.125684 -0.342906 0.895615 -0.130775 -0.425172 
0.132359 0.862384 -0.183327 0.215182 0.902851 -0.372233 
0.323552 -0.101968 0.432821 0.693577 -0.583338 0.422692 
0.122751 -0.24512 0.479484 0.310349 -0.411838 0.85678 
-0.337176 -0.271881 -0.371643 -0.917998 -0.0878884 -0.386725 
0.318165 0.795424 -0.12147 0.5938 0.760083 -0.263962 
-0.281734 -0.177239 0.371197 -0.582798 -0.642899 0.497018 
-0.399915 0.741701 0.0771503 -0.692075 0.713613 -0.108575 
0.36295 0.570845 0.528065 0.624484 0.358867 0.693711 
-0.51254 0.158102 0.246413 -0.979008 -0.129312 0.157551 
-0.438014 -0.213314 0.168329 -0.647706 -0.740107 0.180883 
0.176938 0.893238 0.0903565 0.295754 0.955264 8.49597e-05 
-0.437336 0.600263 -0.146354 -0.880184 0.337829 -0.333388 
-0.343913 0.752828 -0.150696 -0.707951 0.652917 -0.269268 
0.0667069 -0.171056 0.547942 0.0815049 -0.578477 0.811617 
0.368683 0.452853 -0.357946 0.812962 0.131838 -0.567197 
-0.473802 0.468132 -0.128858 -0.890046 0.140133 -0.433799 
0.504954 0.575639 -0.0560108 0.892708 0.310305 -0.326777 
-0.378011 0.569991 -0.295084 -0.824536 0.247257 -0.508924 
-0.282415 -0.456529 -0.12874 -0.851463 -0.518228 -0.0803176 
-0.162359 -0.570013 0.377345 -0.262776 -0.61328 0.744873 
-0.0333882 0.175997 0.699691 -0.0568281 -0.243979 0.968114 
0.410585 -0.104539 0.276961 0.684251 -0.631619 0.364496 
0.525076 0.532058 0.326225 0.897833 0.257693 0.357059 
0.353038 0.803527 0.0654891 0.624522 0.780445 -0.029609 
-0.337318 -0.18316 0.289639 -0.583589 -0.661356 0.471203 
0.348127 0.638663 -0.310712 0.72145 0.42804 -0.544327 
0.444672 0.671188 0.324055 0.724078 0.5961 0.346952 
0.397492 0.230703 -0.315487 0.859733 -0.0443313 -0.508816 
0.133226 0.317146 -0.538203 0.31227 -0.104467 -0.944232 
0.380759 0.00133606 0.445957 0.756802 -0.422838 0.498456 
-0.0592967 0.517286 0.647856 -0.154314 0.312531 0.937289 
0.134605 -0.477787 0.473985 0.219941 -0.193578 0.956114 
0.195962 -0.167914 0.507384 0.45916 -0.596496 0.658304 
-0.416503 0.319648 -0.262313 -0.896611 -0.0182964 -0.44244 
0.0857408 -0.567059 -0.423287 0.208211 -0.978071 -0.00508073 
-0.198785 0.87276 0.200794 -0.344188 0.936723 0.0639173 
-0.557462 0.283231 0.180148 -0.985192 -0.170711 0.0159574 
0.12515 0.665469 -0.431409 0.139862 0.539517 -0.830277 
0.315145 0.4908 0.590012 0.525884 0.274449 0.805061 
-0.0097848 -0.969657 0.203823 -0.0898525 -0.0538068 0.994501 
0.0318148 0.900731 -0.103579 0.0541229 0.972205 -0.227788 
0.248816 0.679502 0.542322 0.414591 0.51611 0.749497 
-0.340383 -0.39597 -0.185513 -0.873109 -0.485121 0.0483531 
0.240662 0.777828 -0.263918 0.430614 0.759317 -0.487863 
-0.313102 -0.54663 0.320862 -0.749657 -0.169994 0.639623 
0.237756 0.553811 0.609891 0.35923 0.347986 0.865944 
0.356328 -0.340052 -0.259268 0.933452 -0.35718 -0.0330226 
0.0116283 -0.622004 0.350153 -0.0187528 -0.750951 0.660092 
0.259026 -0.848165 0.0308016 0.902098 -0.353615 0.247336 
0.243861 -0.279545 0.342178 0.861828 -0.100619 0.49712 
-0.138432 0.182938 0.688048 -0.26051 -0.20399 0.943675 
-0.197389 -0.913528 0.147585 -0.665264 -0.217828 0.714125 
0.00713995 0.201012 -0.633998 -0.055979 0.609873 -0.79052 
-0.453346 0.248213 -0.182118 -0.895213 -0.0518455 -0.442612 
-0.0705495 -0.327805 -0.623233 -0.318995 0.0362566 -0.947063 
0.229866 -1.0429 0.00369449 0.960505 -0.151018 0.233717 
-0.0636121 -0.873892 0.202776 -0.147155 -0.146502 0.978204 
-0.395474 -0.18506 -0.203173 -0.967898 -0.220096 -0.121371 
0.419879 0.730827 0.207581 0.688439 0.718539 0.0987631 
0.212552 0.86499 -0.0923762 0.371573 0.90423 -0.210478 
-0.103847 0.902749 0.176229 -0.200953 0.97697 0.071751 
-0.410232 0.587318 0.421845 -0.619502 0.399345 0.675826 
-0.335545 0.548256 0.504835 -0.577647 0.347519 0.738617 
0.256616 0.358659 0.655416 0.409611 0.110325 0.905565 
-0.315784 -0.465726 0.0210658 -0.968233 -0.0149898 -0.249601 
0.166179 0.401699 0.682036 0.213956 0.195554 0.957069 
0.232308 0.158487 0.650172 0.380277 -0.256095 0.88871 
-0.277493 0.7519 -0.260199 -0.538871 0.688379 -0.485543 
-0.394742 -0.246008 -0.0666415 -0.9498 -0.311572 0.0283414 
0.413921 -0.189294 -0.116253 0.963551 -0.252197 -0.0892536 
0.375444 0.415587 0.568163 0.642122 0.176865 0.745921 
0.0033354 -0.412837 -0.638606 0.0737617 -0.000642894 -0.997276 
-0.335152 0.676284 0.430109 -0.598565 0.484199 0.638178 
0.177758 -0.0802084 -0.540217 0.630945 0.1104 -0.767932 
-0.434695 0.515564 -0.205982 -0.896544 0.161753 -0.412365 
0.319958 -0.0995062 -0.428803 0.74611 -0.0294685 -0.66517 
0.217582 -0.719338 -0.12055 0.520409 -0.00863918 -0.853874 
0.258711 -0.158437 -0.502153 0.660684 0.0448586 -0.749323 
-0.15909 0.890543 0.0929679 -0.301839 0.953095 0.0224496 
0.049758 0.426419 -0.530425 0.053035 0.186445 -0.981033 
0.25759 0.199436 -0.451087 0.416948 -0.0611556 -0.906871 
-0.280934 -0.533636 -0.0521274 -0.880604 -0.0804114 -0.46698 
0.301704 -0.405367 -0.109363 0.905175 -0.416839 -0.0830816 
-0.166998 0.723916 -0.366968 -0.262433 0.653052 -0.710389 
0.235749 -0.942884 0.00144443 0.949659 -0.193036 0.24675 
-0.385239 -0.088625 0.34707 -0.582492 -0.58321 0.566188 
0.194202 -0.898007 -0.13666 0.459214 0.0484537 -0.887003 
0.430574 -0.0858807 -0.0877088 0.974257 -0.156557 -0.162211 
-0.288534 0.590856 -0.392082 -0.578777 0.327335 -0.746907 
-0.469842 0.0246768 0.0311612 -0.937085 -0.269013 -0.222496 
-0.390567 0.345218 0.542071 -0.671814 0.139367 0.727491 
-0.22944 -0.198405 -0.527383 -0.672818 0.00543184 -0.739788 
0.0730978 0.539585 0.648621 0.0332884 0.341283 0.939371 
0.457064 0.423872 0.484084 0.782251 0.152332 0.604052 
-0.12489 0.894028 -0.0889461 -0.21687 0.959932 -0.177478 
-0.0136759 -0.998613 -0.198593 0.116491 0.171526 -0.978268 
0.347194 -0.396703 0.141365 0.979601 0.186795 0.0740942 
-0.0422007 -0.169647 0.543236 -0.194562 -0.600889 0.775292 
0.361451 -0.224529 -0.335769 0.925859 -0.116956 -0.359315 
0.154104 0.452352 -0.516459 0.226277 0.195525 -0.954237 
-0.402604 0.00544796 0.408268 -0.736352 -0.380217 0.559662 
-0.44441 0.186989 0.483163 -0.786919 -0.237763 0.56941 
0.559291 0.314564 0.257371 0.981046 -0.0723579 0.179757 
0.101719 -0.556264 -0.548912 0.423369 -0.82689 -0.370152 
0.302866 -0.194217 0.312133 0.772665 -0.501221 0.389572 
-0.303221 -0.452423 0.283827 -0.840668 0.305797 0.446952 
-0.0964333 -0.454145 -0.642022 -0.394363 -0.157346 -0.905384 
0.137192 0.746267 -0.360276 0.183859 0.711943 -0.677741 
0.0728072 0.00687343 -0.673993 0.81146 0.155096 -0.563451 
-0.0163156 -0.719333 0.257481 -0.0453623 -0.507905 0.860218 
0.37051 -0.596089 0.144594 0.976727 -0.204172 0.0657126 
0.194289 -0.618335 -0.142145 0.602179 -0.221022 -0.767157 
-0.446942 0.0872851 0.37123 -0.807257 -0.310937 0.501652 
0.0782158 0.191594 -0.532848 0.554037 0.28555 -0.781987 
-0.220167 -0.522743 -0.432254 -0.56185 -0.794539 -0.230285 
0.128468 -0.814695 -0.149813 0.285158 -0.019445 -0.958283 
-0.275984 0.400836 0.601761 -0.483147 0.252614 0.838305 
0.0754951 -0.225256 -0.642046 0.431656 -0.119223 -0.894125 
0.0279219 0.321988 -0.54099 0.0571789 0.0719672 -0.995767 
0.556529 0.419127 0.253781 0.98478 0.0504006 0.166338 
-0.515182 -0.100147 0.173897 -0.877765 -0.410403 -0.24718 
0.0140037 -0.563008 -0.495064 0.0552657 -0.995202 -0.0807374 
0.284728 0.447441 -0.447333 0.598005 0.158335 -0.785698 
0.378309 0.136467 -0.336646 0.822159 0.0494763 -0.567104 
-0.458965 -0.0347955 0.121614 -0.898216 -0.23313 -0.372638 
0.232702 -1.01968 -0.130951 0.786344 -0.0849058 -0.611927 
0.297575 -0.376237 0.260526 0.893033 0.261794 0.365999 
0.412529 0.3891 -0.294634 0.877605 0.0502991 -0.476738 
-0.55061 0.0154633 0.292866 -0.889902 -0.0451425 0.453912 
-0.506731 0.18767 -0.0574187 -0.93458 -0.199868 -0.294301 
0.358603 -0.616608 0.0406667 0.958648 -0.125063 -0.255643 
0.164578 -0.00913227 0.611647 0.286163 -0.379536 0.879809 
-0.44252 0.710519 0.163266 -0.706189 0.706764 -0.0422078 
0.0764115 -0.393607 0.474752 0.117413 0.0603346 0.991249 
0.369332 -0.276743 -0.0378363 0.87566 -0.472092 0.101729 
-0.0130631 0.917621 0.119398 -0.051787 0.998014 0.0358704 
0.0775318 -0.495903 -0.628686 0.386839 -0.359943 -0.848998 
-0.148609 0.509345 -0.481818 -0.288893 0.294752 -0.910858 
0.451942 0.241667 -0.215683 0.910769 -0.0731306 -0.406389 
-0.536104 0.236519 0.300845 -0.950662 -0.198498 0.238413 
0.167896 -1.01799 0.153431 0.739165 -0.160156 0.654206 
0.186379 0.537638 -0.476361 0.288708 0.330699 -0.898491 
-0.10077 -0.568205 -0.374875 -0.187706 -0.981168 -0.0455666 
-0.109286 0.60815 -0.457893 -0.172968 0.420535 -0.890636 
-0.222295 0.0845319 0.616827 -0.432489 -0.344725 0.833137 
0.307662 -0.439772 -0.26707 0.792341 -0.604621 0.08142 
-0.00763637 0.911242 0.217777 -0.0456033 0.991945 0.118172 
0.0351428 -0.512911 0.463626 0.0254722 -0.452002 0.891653 
0.044758 0.916672 0.0183513 0.0627617 0.99659 -0.0535719 
0.0308303 0.870344 -0.197045 0.0470264 0.910755 -0.410261 
-0.336955 -0.451899 0.177431 -0.950957 0.293608 0.0973371 
0.279782 -0.250003 -0.463694 0.748808 -0.0445471 -0.661288 
-0.0600863 0.276137 -0.529985 -0.26618 0.00352083 -0.963917 
-0.562259 0.401142 0.201582 -0.997988 -0.0109873 0.0624404 
0.492426 0.301377 -0.14607 0.917068 -0.0707444 -0.392404 
-0.274733 0.754931 0.419099 -0.555408 0.609994 0.565181 
-0.337091 -0.225486 0.171414 -0.704081 -0.602926 0.375167 
-0.230876 -0.0938725 -0.522943 -0.623451 0.126652 -0.771536 
0.271499 -0.799564 -0.0938205 0.771648 -0.0611045 -0.633108 
0.0437074 0.617975 -0.460874 0.0208441 0.448893 -0.893342 
0.534834 0.377509 0.344288 0.942017 0.00371472 0.335543 
0.0755067 -0.621691 -0.224095 0.318609 -0.60244 -0.731815 
-0.289685 -0.764968 0.0886232 -0.819641 -0.43578 0.371866 
0.0967295 0.902723 0.247434 0.134018 0.979745 0.148793 
-0.111931 -0.20526 0.46626 -0.432119 -0.512657 0.741927 
-0.269893 -0.720367 0.179685 -0.646503 -0.544436 0.534437 
-0.277548 -0.336965 0.264884 -0.867943 0.110775 0.484153 
-0.150737 -0.271862 -0.580518 -0.575036 -0.0101634 -0.818065 
0.32016 -0.423667 -0.364466 0.861596 -0.453789 -0.227439 
-0.219346 -0.490947 0.403926 -0.596829 -0.0997038 0.79615 
0.321746 0.749549 -0.212475 0.622561 0.674981 -0.396003 
0.299456 -0.701378 -0.0667355 0.792032 -0.0624879 -0.607273 
-0.387494 0.402852 -0.312091 -0.869864 0.05282 -0.490456 
-0.301558 -0.188874 -0.447124 -0.794264 -0.0413324 -0.606165 
0.192202 -0.301238 0.427949 0.66048 -0.0744403 0.747145 
0.562354 0.338014 0.0679989 0.987051 -0.0405148 -0.155209 
0.430828 0.605227 0.420494 0.725115 0.43237 0.535971 
0.33795 -0.270568 0.0593178 0.905153 -0.400297 0.143041 
0.312577 0.579649 -0.384445 0.655461 0.329809 -0.67941 
-0.385802 0.243652 0.54651 -0.691841 -0.0719631 0.718454 
-0.508015 0.503813 0.371903 -0.81074 0.205711 0.548072 
-0.461183 0.611272 -0.0474851 -0.846991 0.436399 -0.303581 
-0.447538 0.0135649 0.271269 -0.814212 -0.232982 0.531769 
0.0922862 -0.105908 -0.594261 0.728937 -0.0454018 -0.683074 
0.475843 0.139151 -0.110009 0.940309 -0.198624 -0.276347 
-0.339751 -0.392705 -0.306407 -0.931761 -0.348131 -0.103087 
-0.170863 0.699881 0.544771 -0.359215 0.479788 0.800479 
0.32989 0.181738 0.604044 0.596959 -0.242569 0.764722 
0.251498 -0.00893664 -0.488368 0.551543 0.132997 -0.823476 
-0.102426 -0.48263 0.47898 -0.25531 -0.217131 0.942163 
-0.189987 -1.01298 0.135946 -0.708516 -0.172002 0.684413 
-0.27808 -1.03009 -0.0717709 -0.97721 -0.210943 -0.0237605 
0.371714 0.748408 0.329252 0.647204 0.698217 0.305974 
-0.370405 0.313859 -0.360216 -0.862304 0.015086 -0.506167 
0.526347 -0.123107 0.0842855 0.846961 -0.51502 -0.131954 
-0.428195 -0.0170085 -0.270787 -0.948966 -0.0702445 -0.307456 
0.153683 -0.371989 -0.560205 0.631344 -0.0366799 -0.774635 
-0.196073 0.81448 0.431279 -0.381884 0.761743 0.523366 
0.151018 0.20664 -0.466832 0.463677 0.0043677 -0.885994 
-0.292423 0.828535 0.0801258 -0.535284 0.844357 -0.0230626 
-0.0848558 0.803864 0.489179 -0.157288 0.744986 0.648272 
-0.224719 -0.846546 -0.150372 -0.445536 0.186137 -0.8757 
0.0142212 0.0622107 0.662062 0.0148553 -0.339975 0.940317 
-0.216893 -0.631528 -0.122216 -0.653042 -0.0983578 -0.750908 
0.369658 0.340205 -0.381123 0.812229 -0.00203037 -0.583336 
-0.39774 -0.122055 0.240504 -0.51704 -0.720471 0.462159 
-0.259579 -0.244656 0.302803 -0.742685 -0.382395 0.549721 
-0.408453 0.701045 -0.0698024 -0.801151 0.56083 -0.208868 
-0.510068 0.133519 0.140394 -0.981378 -0.15102 -0.118701 
-0.202906 0.401622 -0.483988 -0.418498 0.161677 -0.893711 
-0.543644 0.0566562 0.19541 -0.995789 -0.00485174 -0.0915469 
0.161544 0.296236 0.692032 0.238688 0.0101031 0.971044 
-0.334569 0.0971729 -0.373374 -0.78228 0.0957469 -0.615525 
0.525366 0.35283 -0.0547373 0.941491 -0.0277781 -0.33589 
0.358185 -0.501692 0.0559086 0.959073 0.131654 -0.250692 
-0.461512 0.664383 0.0488065 -0.77861 0.590442 -0.212471 
-0.507063 0.28716 -0.0853902 -0.913447 -0.0848954 -0.398004 
0.522223 0.613265 0.257368 0.866017 0.452466 0.212812 
0.17469 0.630982 0.597619 0.23351 0.425679 0.874225 
-0.120822 0.179616 -0.473276 -0.407483 0.0228674 -0.912927 
-0.402211 0.459687 0.497975 -0.645349 0.262132 0.717503 
0.464988 -0.0409014 0.0746515 0.872095 -0.373394 -0.316271 
0.0754683 0.104591 -0.611906 0.706499 0.457083 -0.54031 
0.36067 0.0974426 0.529995 0.698404 -0.340888 0.629307 
0.339845 -0.324937 -0.371037 0.913748 -0.162261 -0.372472 
-0.50915 0.278171 0.385988 -0.891915 -0.08311 0.444501 
-0.462567 0.355361 0.442669 -0.802812 0.0800298 0.590837 
-0.278987 0.456787 -0.427447 -0.59054 0.188938 -0.784579 
-0.419395 -0.119701 -0.0712037 -0.971502 -0.228487 -0.0630636 
0.212648 -0.852451 0.132064 0.783834 -0.386953 0.485665 
-0.225859 0.271295 0.65996 -0.427953 0.0494905 0.902445 
-0.2063 -0.707594 0.257585 -0.313427 -0.596917 0.738549 
-0.403168 0.0961452 0.46192 -0.756999 -0.37078 0.538028 
-0.421249 -0.180308 0.012896 -0.933611 -0.345978 -0.0931144 
-0.329303 -0.338557 0.105798 -0.969314 -0.173004 0.174643 
0.0174113 0.893353 0.314135 0.00129857 0.969716 0.244233 
-0.0616206 -0.0652663 0.607227 -0.145519 -0.489311 0.859883 
-0.19608 0.531599 0.606023 -0.383654 0.297635 0.874198 
0.507829 0.289814 0.401871 0.894539 -0.127465 0.42843 
0.254152 0.694174 -0.356066 0.470321 0.597037 -0.649881 
0.136743 0.899019 -0.0333932 0.22624 0.966587 -0.120521 
-0.0439357 -1.06946 0.196983 -0.19011 -0.162411 0.968236 
0.253726 -0.507086 -0.314686 0.605067 -0.795958 0.0185639 
0.0340641 -0.30014 0.458886 0.0110489 -0.148857 0.988797 
-0.477024 0.620024 0.335306 -0.73509 0.476038 0.482732 
0.52816 0.614736 0.106613 0.890686 0.447282 -0.0813462 
0.478022 0.0337498 0.20195 0.843377 -0.349307 0.408288 
-0.187271 -0.806292 0.212257 -0.403421 -0.409198 0.818418 
-0.210591 -0.528895 -0.20223 -0.68288 -0.698291 -0.214626 
-0.312677 0.277433 0.610292 -0.561446 0.0421007 0.826442 
-0.278797 -0.279233 -0.481445 -0.76096 -0.0181787 -0.648544 
-0.428341 -0.0774768 -0.18322 -0.970299 -0.220086 -0.100406 
0.368266 0.685447 0.430342 0.648988 0.561173 0.513711 
0.00999902 0.441951 0.67971 -0.0549678 0.287199 0.956292 
-0.0987989 -0.307865 0.45397 -0.426679 -0.0209771 0.90416 
0.501355 0.472085 0.401677 0.852895 0.186831 0.487508 
-0.352359 0.496501 -0.357008 -0.770729 0.151649 -0.618853 
-0.117549 -0.79448 -0.171507 -0.221035 0.0500828 -0.973979 
-0.26812 0.18256 0.630503 -0.501642 -0.188554 0.844276 
0.451872 0.488156 -0.19607 0.887694 0.134318 -0.440407 
-0.25672 -0.964376 -0.000944419 -0.931762 -0.192912 0.307578 
0.318702 -0.567201 -0.0367755 0.833135 -0.00561149 -0.553041 
0.281166 -0.906307 -0.0819633 0.937429 -0.138487 -0.31945 
0.162585 -0.0999551 0.572772 0.297303 -0.502912 0.811597 
0.176362 0.828122 0.420415 0.297013 0.833266 0.466316 
0.478774 0.661924 0.0281535 0.808336 0.564457 -0.167275 
0.016492 0.259407 0.720854 0.0313715 -0.0287542 0.999094 
0.456651 0.590978 -0.144512 0.864479 0.314182 -0.392386 
-0.229925 -0.618582 0.317387 -0.353108 -0.607194 0.711779 
0.4561 0.10928 0.406283 0.832069 -0.322134 0.451542 
0.463575 0.381797 -0.208453 0.895687 0.0334546 -0.443425 
0.210647 -0.695528 0.278369 0.274567 -0.633922 0.723018 
0.213032 0.28795 -0.477329 0.366626 -0.21227 -0.90583 
-0.215927 -0.448702 -0.52415 -0.723025 -0.295953 -0.624217 
-0.363104 -0.312677 -0.241746 -0.963031 -0.25098 -0.0978805 
-0.462941 0.350043 -0.176092 -0.886546 -0.0055873 -0.462607 
-0.280633 0.342102 -0.462056 -0.570829 0.0848049 -0.816677 
0.18639 -0.506821 -0.48232 0.64923 -0.66529 -0.368633 
0.133605 0.781571 0.506636 0.207645 0.70858 0.674388 
-0.215134 0.224883 -0.493235 -0.310539 -0.142284 -0.939851 
0.372898 0.772832 -0.0382299 0.679197 0.716571 -0.158802 
-0.0743109 -0.698722 -0.20876 -0.237121 -0.261719 -0.935562 
0.344594 -0.281762 0.173166 0.929119 -0.209676 0.304589 
0.217773 0.620573 -0.432552 0.36867 0.447889 -0.814541 
0.489586 0.0876994 0.288028 0.847403 -0.296064 0.440743 
0.518078 0.455614 -0.0712845 0.927561 0.0863547 -0.363556 
-0.372626 -0.337848 -0.0982197 -0.915245 -0.396933 0.0690699 
-0.0783875 -0.888636 -0.182084 -0.00698516 0.124504 -0.992194 
0.234179 -0.344352 -0.49776 0.700585 -0.0906654 -0.707785 
0.2064 0.0873616 -0.490832 0.51711 0.219059 -0.827412 
-0.273801 -0.505073 -0.351489 -0.672363 -0.73753 -0.0630588 
0.441458 -0.0734054 0.180646 0.684715 -0.639348 0.349856 
-0.215074 0.858802 -0.120435 -0.408721 0.884164 -0.226276 
0.0492227 -0.574109 -0.311002 0.150315 -0.960295 -0.235028 
0.0739626 0.855585 0.408864 0.103411 0.89658 0.43064 
-0.0517144 0.177284 -0.545586 -0.580861 0.313276 -0.751305 
0.440537 -0.20749 -0.0156875 0.896638 -0.442114 -0.0239788 
0.43558 -0.112195 0.00959313 0.9318 -0.286332 -0.223077 
-0.21971 0.0805115 -0.489867 -0.409147 0.195213 -0.891342 
-0.0389445 0.684748 0.583112 -0.0978862 0.458833 0.883114 
-0.352177 0.750926 0.345293 -0.611112 0.665925 0.427885 
-0.508942 0.12602 0.0326159 -0.941203 -0.279189 -0.19024 
-0.56119 0.332892 0.273078 -0.973727 -0.0823584 0.212302 
0.102868 -0.566603 0.403575 0.0546417 -0.693018 0.718846 
-0.396548 -0.112222 -0.295864 -0.9298 -0.196603 -0.311157 
0.539153 0.178936 0.209757 0.97968 -0.0674979 0.188866 
-0.199168 0.629714 -0.420552 -0.344091 0.439125 -0.829922 
-0.513893 0.636892 0.198596 -0.837736 0.544414 0.0425651 
-0.210619 -0.33425 -0.527391 -0.67011 -0.00439453 -0.742249 
0.0200803 0.762101 -0.355586 0.00642743 0.730133 -0.683275 
0.535605 0.232739 -0.0130795 0.939656 -0.168477 -0.297761 
-0.0506663 -0.0619753 -0.708905 -0.641859 -0.249017 -0.725263 
-0.397027 0.110042 -0.294444 -0.87972 0.0889637 -0.467095 
-0.124142 0.599968 0.606532 -0.251454 0.345096 0.904256 
0.412998 -0.117081 -0.18749 0.979479 -0.158095 -0.125005 
-0.0204613 -0.51298 -0.621333 -0.0642965 -0.547309 -0.834457 
0.0454723 -0.0462164 -0.762606 0.365334 -0.132199 -0.921442 
0.0769745 -0.340099 -0.616308 0.406252 0.00387011 -0.913753 
-0.339636 -0.753048 -0.0420448 -0.942145 -0.0565775 -0.330396 
0.437455 -0.168558 0.0911213 0.764225 -0.625521 0.157106 
0.274426 0.740798 0.469065 0.492996 0.648176 0.580364 
-0.256355 0.682824 -0.354191 -0.483076 0.552167 -0.679521 
-0.157277 0.303475 -0.528963 -0.27905 -0.096349 -0.955431 
0.157755 -0.924559 0.199983 0.561286 -0.206277 0.801503 
0.410165 0.582723 -0.252538 0.84444 0.278327 -0.457662 
-0.0495146 0.817121 -0.280053 -0.0743109 0.82098 -0.566101 
-0.17538 0.861462 0.328777 -0.290576 0.923442 0.25064 
-0.334252 0.673877 -0.286721 -0.700872 0.496874 -0.511757 
-0.47397 0.0860873 -0.0509131 -0.953383 -0.245848 -0.174984 
0.19665 -0.516071 -0.204242 0.67321 -0.698374 -0.243028 
-0.455376 -0.00260561 -0.0958397 -0.974152 -0.212759 -0.075905 
0.079437 -1.02065 0.207056 0.244358 -0.139415 0.959611 
0.256686 -0.541041 -0.11258 0.765661 -0.260434 -0.588165 
0.302765 0.00745992 0.533359 0.630074 -0.384945 0.674407 
-0.387807 0.00614506 -0.361518 -0.844408 0.0622727 -0.532068 
0.135597 -0.978717 -0.166373 0.295182 0.114331 -0.948576 
-0.461052 0.155666 -0.148086 -0.936655 -0.0802834 -0.340929 
-0.356723 0.139332 0.546558 -0.662186 -0.301175 0.686151 
0.0723804 0.521101 -0.495935 0.0582467 0.339263 -0.938886 
0.0412036 0.744955 0.552006 0.033883 0.592608 0.804778 
0.22764 0.383405 -0.498367 0.41733 -0.0136533 -0.908652 
-0.104625 -0.654654 0.306602 -0.0420196 -0.684254 0.728032 
-0.355083 -0.171368 -0.363037 -0.889145 -0.139096 -0.435974 
-0.0311676 -0.379144 0.469439 -0.122929 0.0829731 0.988941 
0.223791 -0.501359 0.434849 0.482698 -0.173839 0.85836 
-0.357851 -0.689989 0.0627039 -0.97221 -0.233641 0.0148187 
-0.280868 -0.116754 0.45276 -0.550576 -0.626241 0.551986 
0.0915788 0.91278 0.137075 0.135813 0.989982 0.0386028 
-0.152107 -0.564863 -0.28056 -0.405617 -0.89283 -0.195776 
0.0511683 -0.910711 -0.170146 0.156492 0.0937851 -0.983217 
-0.0918286 0.397654 -0.539045 -0.180338 0.124098 -0.975745 
0.395365 0.676053 -0.18853 0.781792 0.497304 -0.376151 
0.268311 0.854544 0.147353 0.466477 0.883718 0.0379845 
-0.335111 -0.562615 0.0264975 -0.907279 0.134323 -0.398501 
-0.0285893 0.351101 0.700431 -0.089293 0.211339 0.973326 
0.231841 -0.204291 0.409025 0.714244 -0.486047 0.5036 
-0.0782061 -0.564078 -0.55774 -0.282618 -0.884736 -0.370634 
-0.277181 -0.853569 0.0273596 -0.901681 -0.289274 0.32139 
-0.217083 -0.358118 0.347591 -0.759106 0.230697 0.608718 
0.506075 0.134843 -0.00728032 0.914451 -0.21475 -0.343018 
0.360983 -0.518692 0.206326 0.981655 0.0981757 0.16345 
-0.403862 0.745035 0.251135 -0.653523 0.738155 0.167434 
0.435678 0.0644541 -0.278172 0.939571 -0.0146814 -0.34204 
-0.0803343 -0.225697 -0.647056 -0.395899 -0.0598959 -0.916339 
-0.230783 -1.06067 0.0443721 -0.882624 -0.203942 0.423535 
0.546307 -0.0361394 0.219502 0.741562 -0.500978 0.446214 
-0.312981 -0.63788 0.21549 -0.734141 -0.508198 0.450303 
-0.325223 0.801359 -0.0141474 -0.630388 0.771708 -0.0841281 
-0.0481403 -0.559571 0.421277 -0.0678759 -0.680525 0.729574 
0.156806 -0.553691 -0.312354 0.391044 -0.917525 -0.0723333 
-0.0915969 0.0866909 -0.543486 -0.696121 0.376927 -0.611016 
0.325097 0.056531 -0.429964 0.632004 0.11021 -0.767088 
-0.0855316 0.100098 0.663844 -0.150265 -0.327759 0.932735 
0.0458636 0.633378 0.610425 0.0121374 0.40419 0.914594 
0.141471 0.806457 -0.279189 0.213398 0.816507 -0.536449 
0.396703 -0.230724 -0.205697 0.966196 -0.236916 -0.101664 
-0.16022 0.013522 -0.530785 -0.587465 0.313757 -0.74595 
-0.0461565 -0.126353 -0.629026 -0.458255 -0.211804 -0.863216 
-0.0521561 0.682124 -0.424123 -0.0776488 0.56229 -0.823287 
-0.269271 0.820534 0.345677 -0.493787 0.801317 0.337734 
-0.0283194 0.550985 -0.490047 -0.0572196 0.371672 -0.926599 
-0.0242838 -0.784047 -0.200915 -0.0128203 -0.106134 -0.994269 
-0.160333 -0.0212978 0.605877 -0.339413 -0.446375 0.827978 
-0.321153 -0.649836 -0.0244048 -0.852025 0.122412 -0.508987 
0.442802 0.00695519 -0.152186 0.977828 -0.167582 -0.125572 
-0.223221 0.86489 -0.0222965 -0.433113 0.89952 -0.057238 
0.317751 -0.74707 0.0298631 0.928121 -0.37226 0.00377254 
0.14345 0.113543 0.663969 0.225425 -0.29626 0.928124 
-0.0862521 0.855392 0.401495 -0.141425 0.902868 0.405992 
0.549315 0.422661 0.0163845 0.969084 0.0451246 -0.242568 
0.232858 0.0619538 0.61449 0.421444 -0.343565 0.839254 
-0.33589 0.801338 0.191028 -0.568594 0.822108 0.0289791 
-0.338378 -0.00838686 0.482262 -0.665747 -0.447103 0.597394 
0.369401 -0.32599 -0.141931 0.891985 -0.447156 0.0664357 
0.429461 0.520286 0.470532 0.732442 0.300651 0.61085 
0.239345 0.458385 0.644375 0.364409 0.256867 0.895112 
0.458693 0.213013 0.450201 0.834986 -0.233519 0.498264 
0.286583 -0.736878 0.12705 0.791707 -0.526518 0.309805 
-0.153544 -0.398064 -0.582194 -0.621729 -0.0143239 -0.783101 
-0.279603 -0.395693 -0.469349 -0.805461 -0.176828 -0.565654 
0.124984 0.018451 -0.568594 0.798747 0.172051 -0.576543 
0.400105 0.189624 0.529756 0.751331 -0.252019 0.609908 
-0.396075 0.208371 -0.288233 -0.894425 -0.0175879 -0.446872 
0.194959 -0.798233 0.229067 0.447703 -0.474701 0.757773 
0.3412 0.215895 -0.396409 0.703022 -0.0814773 -0.706486 
0.27391 -0.627527 0.313211 0.468599 -0.630297 0.618983 
0.364554 0.284939 0.593157 0.648882 -0.0542257 0.758954 
-0.157414 0.81004 -0.261669 -0.251009 0.811689 -0.527404 
-0.384994 0.664306 -0.202642 -0.817522 0.452331 -0.356448 
0.549706 0.505777 0.204198 0.982254 0.165797 0.0876808 
0.0147135 0.818702 0.479724 0.0111796 0.795929 0.605286 
0.077101 -0.801801 0.229428 0.00928006 -0.303051 0.952929 
0.322453 -0.459151 -0.0278265 0.940743 -0.0479474 -0.335715 
-0.172985 0.355921 0.66459 -0.342846 0.224468 0.912179 
0.434977 0.675648 -0.0925877 0.801891 0.522345 -0.290047 
-0.54478 0.211728 0.0793891 -0.966949 -0.227336 -0.115445 
0.296269 -0.462686 0.334836 0.824437 0.250402 0.507545 
0.368082 -0.0203773 -0.385251 0.802091 -0.0309631 -0.596399 
-0.307091 0.0429419 -0.454444 -0.625179 0.135712 -0.768592 
0.313996 0.295803 -0.454707 0.57332 -0.125996 -0.809586 
0.321981 0.814171 0.254031 0.570246 0.806381 0.156743 
0.0839301 0.192106 0.695294 0.146595 -0.202276 0.968295 
-0.529615 -0.11167 0.28111 -0.725439 -0.527211 0.442478 
0.196542 -0.22382 -0.559589 0.623814 0.018249 -0.781359 
-0.263042 -0.952045 -0.150042 -0.745051 -0.00654626 -0.666975 
0.446278 0.133694 -0.205827 0.95476 -0.0711814 -0.288731 
-0.4886 0.18061 0.393503 -0.866764 -0.260884 0.425041 
-0.17345 -0.400289 0.430056 -0.584857 0.201261 0.785771 
-0.369119 -0.276641 0.0236283 -0.89487 -0.42965 0.120865 
0.442569 -0.0208863 0.317738 0.76969 -0.468632 0.433544 
-0.129697 -0.547888 -0.468537 -0.360142 -0.921926 -0.142653 
0.284866 -0.553381 0.37779 0.610416 -0.31557 0.726504 
0.196526 -0.944371 0.0945468 0.872233 -0.18398 0.453167 
0.291997 -0.274831 0.256414 0.890243 -0.139809 0.433498 
-0.310209 -0.879911 -0.0840629 -0.956665 -0.0919006 -0.276307 
0.183236 -0.604143 0.350583 0.124361 -0.688868 0.71414 
0.0209852 0.0968095 -0.699191 0.13442 0.62661 -0.767653 
-0.536238 0.283335 0.00954464 -0.960434 -0.133784 -0.244273 
0.0691831 -0.0642719 0.605266 0.095044 -0.449966 0.887974 
0.264676 0.807946 0.377061 0.47734 0.791087 0.382527 
0.314736 -0.663231 0.193731 0.770308 -0.551021 0.320937 
-0.548366 0.548874 0.140794 -0.950153 0.29999 -0.0849463 
0.51385 0.173849 0.335277 0.893881 -0.241939 0.377414 
-0.33173 -0.368206 0.00793365 -0.956278 -0.288198 0.0497523 
-0.0537905 0.914242 0.0189845 -0.108398 0.993495 -0.0348848 
-0.148507 -0.617227 -0.193536 -0.553931 -0.47663 -0.68263 
-0.121623 -0.962843 0.193841 -0.369483 -0.111162 0.922564 
-0.513544 0.392624 -0.0759473 -0.905444 0.0375217 -0.422803 
0.437342 0.288064 0.517944 0.787387 -0.0977202 0.608664 
0.261191 -0.456331 -0.437787 0.745633 -0.502682 -0.437428 
-0.295558 -0.469663 -0.233286 -0.754643 -0.653031 0.0637558 
-0.513534 0.520159 -0.0305845 -0.888024 0.27211 -0.370634 
0.0695742 0.341592 0.700808 0.0809254 0.146594 0.985881 
0.18243 0.888544 0.194459 0.302136 0.95005 0.078225 
-0.153114 -0.107962 0.549492 -0.364218 -0.60978 0.703927 
0.250703 0.255645 0.661782 0.402922 -0.0840799 0.911364 
0.271174 0.85475 0.0424256 0.472702 0.880216 -0.0421028 
-0.251096 -0.0106564 0.551763 -0.522143 -0.459495 0.718492 
-0.54953 0.529087 0.252112 -0.95023 0.231229 0.208798 
0.419896 0.732929 0.0914191 0.708064 0.705263 -0.0353567 
-0.376764 -0.564079 0.191938 -0.981873 -0.0586436 0.180242 
0.423182 -0.0370246 -0.259052 0.962815 -0.146544 -0.226961 
0.332761 -0.376022 0.0338893 0.996086 -0.0557122 -0.0686145 
-0.0387217 -0.610418 -0.23983 -0.116243 -0.717605 -0.686681 
-0.439456 -0.0829559 0.0301691 -0.94891 -0.229568 -0.216492 
-0.0891216 0.888857 0.288981 -0.156102 0.969287 0.190038 
-0.247488 0.630703 0.539922 -0.508573 0.380011 0.772622 
-0.55041 0.43536 0.010671 -0.953615 0.0803351 -0.29011 
-0.134621 0.452873 0.650331 -0.277335 0.286268 0.917135 
-0.449213 0.056082 -0.202345 -0.966564 -0.0271766 -0.254981 
0.0759946 -0.732099 -0.195924 0.259094 -0.182452 -0.948463 
0.523435 0.105134 0.0879359 0.938146 -0.084371 -0.335803 
-0.519831 0.582549 0.0456785 -0.869517 0.416685 -0.265167 
0.561882 0.263413 0.156566 0.996853 -0.0787979 0.00866236 
-0.161136 -0.174926 -0.595295 -0.588133 0.0207578 -0.808498 
-0.107804 -0.0361079 -0.601807 -0.776086 0.154052 -0.611522 
-0.186058 -0.727072 -0.141366 -0.44183 0.0617885 -0.894968 
0.548961 0.514992 0.0675438 0.971211 0.183828 -0.151515 
0.212275 -0.400382 0.418887 0.632018 0.195934 0.749776 
-0.0922912 0.862318 -0.203472 -0.139725 0.89161 -0.430708 
0.204815 0.862333 0.318296 0.346126 0.901762 0.258886 
-0.328129 0.237073 -0.433114 -0.705173 -0.0728038 -0.705287 
0.553299 -0.00075105 0.10444 0.896194 -0.293327 -0.332859 
-0.0550664 0.0755183 -0.634886 -0.73615 0.468449 -0.488507 
0.347807 -0.554683 0.297467 0.885309 -0.149969 0.440157 
0.457858 0.00218784 -0.0210193 0.912929 -0.228824 -0.337936 
-0.176707 -0.270272 0.378307 -0.698699 -0.174369 0.693841 
0.271597 -0.091911 0.517645 0.589437 -0.519226 0.618845 
