ply
format ascii 1.0
element vertex 816
property float x
property float y
property float z
property float nx
property float ny
property float nz
end_header
-0.188837 -0.196654 -0.244733 0.660701 -0.665236 -0.347757 
0.110438 -0.135867 0.0348138 0.828707 -0.343914 0.441552 
-0.130495 -0.172272 0.0675435 -0.707859 0.704725 0.0479456 
-0.164286 -0.169685 0.151084 -0.058257 0.524528 0.849397 
-0.0285302 0.198209 0.28247 -0.603743 0.64526 0.468116 
0.210648 -0.219479 -0.464712 -0.735282 -0.660883 -0.150313 
0.187549 0.149587 -0.241661 -0.896213 -0.414322 -0.158554 
0.0959472 0.24493 0.449114 0.0965822 -0.992843 0.0702509 
0.227354 0.215877 0.443507 -0.999086 0.0420593 0.00764401 
0.134282 -0.147502 0.00739711 -0.675692 -0.734869 0.0583847 
-0.00332865 0.148459 -0.181609 -0.0200664 0.979212 -0.201843 
0.00566453 -0.249503 0.151273 -0.190667 0.969226 0.155713 
0.00748222 0.212232 0.327896 -0.0843744 0.954392 -0.286382 
-0.100856 -0.0181832 0.239975 0.0536652 0.0440403 -0.997587 
0.0339813 0.0169254 0.146565 0.0171034 0.00974558 0.999806 
-0.146253 0.183644 0.494232 -0.0503622 0.103908 -0.993311 
-0.189458 0.158451 -0.414716 -0.594449 0.766298 0.243758 
0.10681 -0.151695 0.0610447 0.564851 0.806046 0.17673 
0.19712 0.224146 0.495258 0.0384806 -0.0471983 -0.998144 
-0.206246 0.240933 0.406727 0.0112432 -0.955065 0.296183 
-0.172966 0.128915 -0.204564 0.754261 0.650646 0.0880313 
-0.166082 -0.223368 0.14816 -0.0346053 -0.0313162 0.99891 
0.211689 -0.0548045 0.214547 -0.993182 -0.109632 0.0396369 
0.218442 -0.193799 0.155948 -0.982293 0.000847372 0.187349 
0.0921802 0.0367688 0.149161 -0.119081 -0.144853 0.982261 
0.186135 -0.0362185 0.239013 0.116897 0.105106 -0.987567 
0.163838 -0.210233 -0.316401 0.574771 0.816676 0.0517533 
-0.14054 0.131548 -0.15536 -0.504952 -0.862723 0.0270592 
-0.177398 0.236559 0.387481 0.100925 -0.95636 0.274207 
0.0429332 -0.167161 0.146875 -0.217415 0.142067 0.965685 
-0.156929 -0.21107 -0.177764 0.0593556 0.152899 -0.986458 
-0.146181 -0.152867 -0.076751 0.76278 -0.64586 0.0321291 
-0.037438 0.0842631 0.147244 0.0546684 0.202702 0.977713 
-0.225523 0.1826 0.32638 0.739407 0.100779 0.665673 
-0.128003 0.0812864 0.0683385 0.705132 0.708886 0.0164125 
0.19353 -0.210292 -0.300766 -0.681662 0.664442 -0.306356 
0.190139 -0.243335 0.199845 -0.223169 0.974377 -0.0280294 
0.168562 0.139818 -0.113727 -0.640603 -0.76197 -0.0950289 
-0.137243 0.149649 0.347567 -0.0503869 0.996674 0.0640417 
-0.215981 -0.0368713 0.176317 0.996414 -0.0290646 0.0794638 
0.139517 0.10254 0.0247571 -0.567985 0.818328 -0.0879342 
-0.167584 0.197097 0.325676 -0.0100136 -0.2067 0.978353 
-0.019532 0.190603 0.496405 0.00481813 0.15773 -0.987471 
-0.164597 -0.186744 -0.0665955 0.751875 0.652887 -0.0917769 
0.111528 0.154262 0.422352 0.0146438 0.997788 -0.0648388 
-0.223845 -0.0897987 0.178798 0.167275 0.220747 0.960879 
-0.158554 -0.198255 -0.197003 0.511573 -0.852231 -0.109514 
-0.00808342 0.244461 0.461171 -0.0156699 -0.996543 0.0815874 
0.174628 0.109052 0.147485 0.166089 -0.0874404 0.982226 
-0.125776 -0.159931 0.146118 0.0480364 0.0482169 -0.997681 
-0.0948527 -0.248159 0.161043 0.0233634 0.998776 -0.0435926 
0.116406 0.149174 0.372316 0.0794937 0.996835 0.000346538 
0.0562441 -0.0723298 0.146567 -0.0543144 -0.0350978 0.997907 
0.142805 0.171883 0.322184 0.130813 0.498472 0.856979 
0.132456 -0.175404 0.0702564 0.466904 0.881119 0.0750284 
-0.159349 -0.180126 0.146598 -0.101803 -0.0328354 0.994262 
-0.174055 -0.0906135 -0.19216 -0.98845 0.0226234 0.14985 
-0.000573716 0.192405 0.178454 0.0967159 -0.976592 -0.192127 
0.162521 0.24282 0.494349 0.141289 -0.257441 -0.955909 
-0.191182 -0.228775 -0.3933 -0.388813 0.912198 0.129303 
0.128035 -0.15395 0.148173 0.0423234 -0.148795 -0.987962 
-0.178577 -0.218981 -0.40686 -0.930459 0.320944 0.176752 
-0.0981984 0.0621763 0.235619 -0.0233897 0.0469436 -0.998624 
0.0446233 0.0724808 0.142379 0.567025 0.133855 0.812752 
0.129987 -0.207159 -0.175045 0.0909984 -0.122535 -0.988284 
0.141323 0.100006 0.0636199 -0.71419 0.691772 -0.106694 
0.136798 -0.177734 -0.0845621 0.684326 0.703898 -0.190331 
0.11941 -0.207313 -0.177376 0.0247942 0.00921645 -0.99965 
-0.15667 0.146354 -0.112841 -0.601215 -0.798182 0.0380191 
0.209771 0.169694 -0.471403 -0.764364 0.644636 -0.0138767 
0.0848247 0.023715 0.237198 0.0958983 0.194236 -0.976256 
-0.0893893 0.154533 0.239807 -0.349705 0.0504256 -0.935502 
-0.00943811 0.164944 0.327388 0.00915028 0.319063 0.947689 
0.168012 0.190365 0.188293 -0.262772 -0.962087 -0.0730688 
0.177227 0.131401 0.146762 0.219684 -0.224384 0.949416 
-0.0989315 -0.1394 0.108712 -0.748179 0.645917 -0.151722 
-0.063042 -0.131323 0.145958 -0.0132971 0.0443725 0.998927 
0.207847 -0.23217 0.161574 -0.753438 0.654506 -0.0628745 
-0.198354 -0.241855 0.16676 0.342425 0.939132 0.0278644 
0.21563 -0.124737 0.165913 -0.997656 -0.0680005 0.0076339 
-0.185674 -0.194545 -0.183323 0.810718 -0.577213 -0.097781 
0.207337 0.0538647 0.165753 -0.997072 -0.0748111 -0.0158071 
0.0828787 -0.203873 -0.201069 -0.147755 -0.152885 0.977136 
-0.0806213 0.164723 0.472643 -0.107093 0.915262 -0.388365 
-0.0665287 0.234034 0.379433 -0.17798 -0.970243 0.164168 
0.177185 0.154681 -0.385989 0.69262 0.698426 0.180216 
-0.212252 -0.22243 -0.495022 0.715391 -0.511635 0.475863 
-0.0357312 -0.117433 0.237172 -0.0900521 -0.0161564 -0.995806 
-0.165168 0.016167 0.148582 0.0849631 0.0903991 0.992275 
-0.174937 -0.0213005 -0.185464 -0.983355 -0.0995878 0.151969 
-0.109172 0.194775 0.212169 -0.0472248 -0.99866 0.0211443 
-0.171514 -0.201067 -0.201622 -0.433719 -0.720595 0.540952 
-0.118397 0.0900848 0.146012 -0.0234138 0.0798191 -0.996534 
-0.0480285 -0.129623 0.233547 -0.0674987 -0.00873154 -0.997681 
0.112582 -0.156187 0.0506625 0.670294 0.736647 0.0897635 
0.0163828 0.240277 0.466816 -0.0628958 -0.967344 0.24554 
-0.22681 0.157635 0.37569 0.90301 0.417773 -0.100191 
-0.106754 -0.174217 0.147035 0.314191 0.291407 0.90353 
0.167626 0.158934 -0.357567 0.957913 -0.2418 0.154714 
-0.0250178 0.0849777 0.147799 0.0501021 -0.0629328 0.996759 
0.213272 0.172547 -0.486138 -0.84884 0.527535 -0.0343246 
0.0710498 0.155894 -0.175101 0.0910467 0.200663 -0.97542 
0.187862 0.184029 0.157186 -0.701163 -0.7111 -0.0520322 
-0.221681 -0.225216 0.15684 0.826603 0.520075 0.215054 
-0.173174 -0.213406 -0.267705 -0.679889 0.732158 -0.041165 
-0.15983 0.116078 -0.0963606 0.630121 0.774409 0.056912 
0.0354691 0.214162 0.502353 0.0232644 0.139398 -0.989963 
-0.0916202 0.226001 0.354104 -0.0358424 -0.83616 0.547313 
0.208822 0.23276 0.368253 0.0343671 -0.979081 0.20055 
0.207562 0.0474335 0.158486 -0.953952 -0.299098 0.0227057 
-0.0726271 -0.192049 0.235649 0.0505337 0.0580969 -0.997031 
0.223646 0.156971 0.340703 -0.327745 0.895928 -0.299827 
-0.132524 -0.172859 -0.0257874 -0.665259 0.74627 -0.0226142 
0.147081 -0.160313 -0.103944 -0.697031 -0.716083 0.0370583 
-0.169506 -0.207874 -0.314459 -0.762471 0.64685 0.0149199 
-0.118305 -0.148334 -0.0105055 -0.664924 -0.742243 0.0833693 
0.18519 -0.203378 -0.234155 -0.734621 0.649738 -0.195376 
0.18823 0.14776 -0.384824 -0.602202 0.79809 0.0200962 
0.0414657 0.157221 0.450494 -0.208879 0.967377 -0.14336 
-0.227251 0.176586 0.371424 0.990298 -0.107442 0.0881308 
0.203938 0.10526 0.147378 -0.422622 -0.257369 0.868995 
0.170959 -0.177704 -0.155239 -0.774521 -0.624227 0.102261 
-0.0959373 0.00216633 0.235946 0.00527502 0.122578 -0.992445 
-0.192195 0.237443 0.387981 0.261998 -0.948399 0.178599 
0.146883 -0.190137 -0.0137736 0.00981558 0.993031 0.117443 
0.137174 0.224904 0.333294 -0.150002 -0.928396 0.339972 
0.0183441 0.243204 0.493482 0.158276 -0.887467 -0.43284 
-0.00203912 0.204756 0.287954 -0.0587383 -0.990519 0.124182 
-0.134002 0.00368444 0.238577 -0.0089581 -0.0206728 -0.999746 
-0.17418 0.244383 0.482141 -0.00341781 -0.999434 0.0334515 
0.163704 -0.199835 -0.329462 0.710107 -0.694031 0.118614 
0.0433628 0.206483 0.278138 -0.108806 -0.984017 0.140964 
-0.0566756 -0.246825 0.171708 0.0543944 0.995539 0.0770924 
0.145269 -0.187481 -0.0518898 0.721794 0.682194 0.116721 
0.199811 0.23342 0.493741 -0.123491 -0.283199 -0.951078 
-0.133367 0.147205 0.39587 0.185759 0.973331 -0.134608 
-0.153285 -0.187577 -0.238938 -0.749157 -0.635453 0.186987 
-0.17915 0.141728 -0.341665 -0.624515 0.738027 0.255533 
0.224714 0.157055 0.335731 0.159856 0.944185 0.288029 
-0.0782434 0.00584351 0.237659 -0.0500099 -0.276006 -0.959854 
-0.112308 -0.122569 0.113113 0.545705 -0.837976 -0.00109014 
-0.162938 0.124236 -0.234851 -0.593216 0.789178 0.159038 
0.146418 0.0697728 0.238997 0.2834 0.266588 -0.921203 
-0.0102437 0.11652 0.149251 0.0208078 -0.0580805 0.998095 
-0.0795495 -0.214533 -0.176038 0.139068 0.52407 -0.840244 
-0.214595 -0.05839 0.17889 0.988312 -0.0944212 -0.119685 
0.200332 -0.216119 -0.481678 0.199101 -0.949643 0.241943 
0.103644 -0.140544 0.059327 0.696227 -0.573956 0.431094 
0.0368912 0.200154 0.206116 0.0218893 0.992825 -0.117561 
-0.220667 0.151042 0.357082 0.399204 0.916758 0.0138154 
0.0544995 0.194628 0.219901 -0.145576 -0.982365 0.117334 
-0.21963 -0.142647 0.164882 0.993217 0.0721578 -0.0911818 
-0.047407 0.148574 -0.177528 0.0686154 0.694017 -0.716682 
0.133855 0.122783 0.111866 0.0982715 -0.972719 -0.210141 
0.21712 0.181896 -0.473693 -0.893253 -0.445731 0.0585045 
-0.089329 -0.0146105 0.241768 -0.214594 -0.378059 -0.900567 
0.138644 -0.151693 -0.0202855 -0.534203 -0.828106 -0.169904 
-0.0991646 -0.121388 0.134867 -0.772081 -0.602511 0.202165 
-0.0828363 -0.0127769 0.146894 -0.00368695 0.0211623 0.999769 
0.151205 -0.194407 0.239114 -0.0427164 -0.136159 -0.989766 
0.146923 0.2443 0.474431 0.00472628 -0.999964 -0.00709972 
-0.154907 -0.163561 0.0740919 0.818436 -0.553705 -0.153538 
-0.113525 0.156672 0.146603 -0.00963853 0.110831 0.993793 
-0.115104 0.14924 0.407727 0.070806 0.994861 -0.0723721 
0.177452 0.0202772 -0.20334 0.0926398 0.109435 0.989667 
0.02047 0.050131 0.23819 -0.136595 0.122522 -0.983021 
-0.0864053 0.193156 0.213433 0.0556842 -0.995558 -0.0759125 
0.168898 -0.182567 -0.266777 -0.356415 -0.933844 -0.0300723 
0.144659 -0.15735 -0.0887856 -0.729493 -0.681656 -0.0564357 
0.068226 0.0934279 0.150106 -0.149866 0.229649 0.961666 
0.0699054 -0.200627 -0.192921 -0.0258169 -0.999664 -0.00217187 
-0.176982 -0.184221 -0.24124 0.79218 -0.607657 -0.056595 
0.0207604 -0.156585 0.233294 0.00530061 -0.00253228 -0.999983 
-0.0860212 0.0937402 0.150502 0.155898 -0.158775 0.974929 
-0.153908 -0.160247 -0.112998 0.75458 -0.655595 -0.0283518 
-0.0821169 0.194667 0.207818 -0.00566334 -0.997209 -0.0744513 
0.196176 0.157776 -0.448857 0.000289185 0.975277 0.220988 
-0.163262 0.12267 -0.215426 0.456593 0.868022 0.195089 
0.215404 -0.210296 0.192012 -0.955006 0.149825 -0.255959 
-0.0304098 -0.064952 0.146481 0.0230281 0.0544161 0.998253 
0.194073 0.175522 0.153833 -0.77376 -0.615099 0.151487 
-0.192256 -0.171094 0.240732 0.0657334 0.0260828 -0.997496 
-0.0123512 0.245025 0.437682 0.201668 -0.972192 0.119053 
0.169578 0.14915 -0.176072 -0.503641 -0.458021 0.732504 
-0.214872 -0.039603 0.205771 0.999469 -0.0325776 0.000222923 
0.16383 0.123505 -0.235209 -0.642239 0.74809 0.167003 
-0.205916 0.141714 0.164902 0.996046 -0.00126755 0.0888339 
0.1743 0.140722 -0.143352 -0.706295 -0.684314 -0.181277 
-0.180257 0.13673 -0.240638 0.638928 0.768233 0.0398746 
0.139922 0.0987053 0.12713 -0.703529 0.710662 -0.00255531 
-0.179073 -0.241121 0.234603 0.00888477 0.678947 -0.734134 
-0.0577364 0.185618 0.494459 0.111899 0.258129 -0.959608 
-0.145408 -0.156966 -0.111893 -0.238884 -0.968769 0.0664938 
-0.188332 0.242843 0.452522 -0.0247974 -0.999347 -0.0262913 
-0.0800622 -0.109142 0.239362 -0.0369179 -0.243626 -0.969166 
-0.149576 0.127972 0.146742 0.0255407 -0.0809523 0.996391 
0.140952 0.123941 0.0775812 -0.691213 -0.700036 -0.179372 
0.127029 0.0866093 0.077242 -0.731358 0.681091 -0.0350759 
-0.0648922 -0.0878089 0.147149 0.321502 -0.1247 0.938662 
0.153596 -0.188761 -0.24547 0.785655 -0.54842 0.286324 
0.14025 0.131615 0.0345259 0.559668 -0.742499 -0.368058 
0.166797 0.16302 -0.23085 0.369083 -0.923328 -0.106035 
0.147652 -0.188369 0.00582006 -0.609078 0.751471 -0.253604 
-0.175802 -0.139762 -0.182435 -0.975278 -0.0441722 -0.216521 
0.161896 -0.174999 -0.250263 0.176308 -0.961845 0.209214 
0.178708 -0.190616 -0.20304 -0.912682 -0.332273 -0.237915 
0.0148838 -0.209194 0.146919 -0.0863264 0.0236191 0.995987 
-0.09807 -0.24863 0.2163 -0.0884075 0.987079 0.13364 
0.185216 0.11348 -0.175216 -0.224442 -0.00237361 -0.974485 
0.171594 0.131021 -0.249304 -0.669373 0.740851 0.055496 
-0.182154 0.173041 -0.39324 -0.688392 -0.724737 -0.0295458 
-0.0632072 0.0432433 0.23651 0.150497 0.108201 -0.982671 
-0.180162 0.160973 -0.245061 0.599716 -0.755448 -0.263892 
0.201117 -0.229019 0.143709 0.090359 0.465454 0.880447 
-0.0764188 0.162782 0.145053 -0.111756 -0.100456 0.988645 
-0.00783226 0.216486 0.342342 0.0141082 0.675034 0.737651 
-0.147334 -0.176723 0.0502382 0.536332 0.830278 -0.15161 
0.0644554 0.241364 0.494825 0.000348975 -0.665102 -0.746753 
0.150324 0.0492085 0.238859 -0.11804 0.21498 -0.969459 
-0.027904 0.202516 0.26837 0.0720816 -0.936752 0.342488 
-0.22371 0.150941 0.391909 0.326057 0.911094 -0.25218 
0.00388708 0.175258 0.242438 -0.416502 -0.0196653 -0.908922 
-0.176226 -0.141796 -0.201755 -0.611176 -0.27512 0.74214 
0.183808 -0.207795 0.147155 0.189203 -0.240889 0.951932 
-0.207846 -0.218739 -0.427686 0.861113 -0.5036 -0.0697996 
-0.15896 0.145578 -0.281361 -0.979579 -0.197292 0.0387373 
0.0875127 0.14848 0.389659 -0.0136182 0.951189 -0.308307 
-0.153308 -0.0843183 0.240969 -0.014002 -0.107218 -0.994137 
0.0850798 0.0432442 0.145239 -0.110867 0.0608152 0.991973 
-0.090819 -0.179827 0.146126 -0.0427541 -0.172363 0.984105 
0.205636 -0.180784 0.151391 -0.596199 -0.238719 0.766524 
-0.189182 0.173505 -0.469177 -0.751485 0.259533 0.606558 
0.120529 0.194755 0.154223 -0.31253 -0.949349 0.0325794 
-0.15444 -0.198833 -0.065608 0.892688 0.441283 0.0915238 
0.140286 0.244934 0.414126 -0.00296305 -0.999969 -0.00730974 
-0.140726 0.0954131 0.0758909 0.711246 0.70292 -0.00574011 
0.0198135 0.243074 0.433922 -0.206785 -0.978129 0.0224553 
-0.116398 0.244979 0.452631 0.0217476 -0.99358 0.111018 
-0.188555 0.177593 -0.468504 -0.837478 -0.443978 0.318612 
0.142881 -0.17176 0.23994 0.0736477 -0.0701117 -0.994817 
0.171365 0.0393078 -0.190004 0.970488 0.241129 0.00308725 
0.154751 -0.166748 0.0728618 0.231332 0.939433 -0.252882 
-0.0465264 0.112858 0.241617 -0.0082124 -0.0506866 -0.998681 
-0.186045 0.143299 -0.333772 0.639677 0.7682 0.0261118 
-0.00985006 0.145265 0.361086 0.00563941 0.990116 0.140139 
-0.227023 0.179507 0.370454 0.98723 -0.0185576 0.158219 
-0.225118 0.203949 0.488291 0.641358 0.132378 -0.755735 
-0.130946 -0.168079 0.148174 -0.0464359 0.0271301 -0.998552 
-0.0230016 0.244694 0.480247 -0.0303752 -0.996901 0.0725689 
0.18847 -0.204187 -0.411658 0.701447 -0.697533 0.146353 
-0.0424066 -0.227016 0.234732 0.0097243 0.0387772 -0.999201 
-0.19306 0.0839446 0.145086 0.0317303 -0.153525 0.987635 
-0.174192 0.159234 -0.204602 0.720447 -0.687084 0.0941883 
-0.19161 0.184383 0.158534 0.400228 -0.910254 -0.10609 
0.0557288 -0.125552 0.148321 0.0629537 -0.0466594 0.996925 
0.0105201 0.146856 0.389748 0.0908372 0.988912 -0.117477 
0.172448 0.189517 0.16925 -0.389346 -0.920485 -0.033431 
-0.00642919 -0.0920553 0.149114 0.0644971 -0.159258 0.985128 
0.208367 0.0359877 0.188469 -0.997259 0.0521344 -0.0524949 
0.172906 -0.00139517 0.142256 -0.23639 -0.508496 0.82798 
-0.190614 -0.0381883 -0.198929 0.958552 0.270192 -0.0904162 
-0.169168 0.125589 -0.0832205 0.672155 0.726079 -0.144974 
-0.0419354 0.248048 0.48316 -0.28341 -0.946871 0.152029 
-0.0378107 0.230115 0.352699 0.0162467 -0.964292 0.264342 
-0.126318 -0.148406 0.144612 -0.28228 0.204346 -0.937315 
-0.215318 -0.0721988 0.169002 0.973826 -0.226825 0.0145895 
0.207949 0.227102 0.346841 0.100631 -0.982132 0.159031 
-0.140689 0.186227 0.323513 0.011558 -0.105959 0.994303 
0.125685 -0.244879 0.195689 0.0659066 0.9978 0.00712818 
-0.131287 -0.239058 0.234926 -0.0723517 0.519432 -0.851443 
-0.0187535 0.206924 0.49956 0.369075 -0.0211576 -0.929159 
0.197162 -0.20896 -0.356071 -0.691621 -0.719434 0.0638313 
-0.00725467 0.241312 0.47949 -0.0822509 -0.944121 -0.31917 
0.137012 0.145748 0.242817 0.176975 0.170758 -0.969289 
-0.19209 0.181463 -0.394888 -0.27889 -0.95023 -0.138866 
-0.171519 -0.211847 -0.24299 -0.70706 0.705747 0.0445755 
-0.108444 -0.147253 0.0537415 -0.75037 0.656262 -0.0791527 
0.0490643 0.199666 0.284074 -0.873174 0.477584 0.0973663 
-0.0246636 0.197488 0.176335 -0.00524273 0.995274 -0.0969585 
0.148043 -0.0347059 0.146912 0.0141839 0.000557124 0.999899 
-0.136907 -0.14536 0.101064 0.699358 -0.707735 -0.100046 
-0.029552 -0.21443 -0.196938 -0.0181867 0.999648 0.0193194 
-0.120331 0.214128 0.498538 0.182997 0.0787005 -0.979958 
-0.20773 -0.0384068 0.233951 0.693678 0.0469801 -0.718752 
0.0339058 0.0756415 0.237385 -0.123301 -0.00265551 -0.992366 
0.187051 0.0745208 -0.178305 -0.967245 0.0823315 -0.240124 
0.185744 -0.0827743 -0.176228 -0.342934 0.415211 -0.842613 
-0.0138812 0.157546 0.453026 0.10548 0.994416 -0.0033756 
-0.226101 0.178684 0.438486 0.930621 -0.147821 -0.334804 
-0.1892 0.144488 -0.189024 0.786721 -0.614763 -0.056007 
0.158814 0.149949 -0.175725 -0.43077 0.90134 -0.0449667 
-0.0302166 0.148695 -0.175937 -0.267091 0.537422 -0.7999 
-0.154161 0.125022 0.0283438 0.8113 -0.583205 -0.0407943 
0.173799 -0.202101 -0.358006 0.545014 -0.679674 0.49092 
0.0558751 0.0517009 0.237056 -0.194464 0.170153 -0.966039 
0.105561 -0.217257 0.149198 0.300244 -0.239048 0.923423 
0.0580029 -0.0887172 0.146018 0.286365 -0.0631201 0.956039 
0.0944947 0.22734 0.351837 0.0979832 -0.962377 0.253435 
-0.0325252 0.157198 0.455221 0.108404 0.943867 -0.31203 
-0.104355 -0.216376 0.145751 -0.134752 0.00639875 0.990859 
0.117616 0.104917 0.146137 0.206176 -0.16467 -0.964559 
-0.125 0.0268653 0.240605 0.0146 0.0748836 -0.997085 
0.166582 0.153285 0.406948 -0.018245 0.983893 -0.177824 
0.00533792 -0.11203 0.146706 0.0119815 0.122899 0.992347 
0.186978 0.12436 -0.199223 -0.98206 -0.0873029 0.167139 
-0.0752786 -0.198432 0.234219 -0.0430256 0.207374 -0.977315 
-0.0488528 0.191935 0.207331 0.225373 0.967744 -0.1126 
-0.0419282 0.0296164 0.147181 0.0040996 -0.0928011 0.995676 
0.167144 -0.180844 -0.251508 -0.628264 -0.771757 0.0983663 
-0.189823 -0.216551 -0.318726 0.514383 0.792192 -0.328392 
-0.126972 0.156163 -0.206462 -0.0429115 -0.131552 0.99038 
-0.143783 -0.184322 -0.0911279 -0.698443 0.707656 -0.106776 
-0.160582 0.1551 0.149042 -0.112917 -0.0477781 0.992455 
0.164088 -0.247589 0.162052 -0.0784311 0.99128 -0.105893 
0.191718 0.152344 -0.344123 -0.715942 0.696219 -0.05201 
-0.0661058 0.144955 0.408695 -0.154017 0.568832 0.807903 
-0.15397 -0.0460235 0.233778 -0.0734612 0.590851 -0.803429 
0.176169 0.209127 0.327104 0.126346 -0.127013 0.983821 
-0.0322959 0.0862099 0.147111 -0.109571 0.101359 0.988797 
-0.0172471 0.202839 0.266431 0.0207063 -0.991709 0.126829 
-0.189737 0.00601321 -0.198208 0.947224 -0.140742 0.288024 
-0.227574 0.183134 0.390066 0.997788 -0.00162092 -0.0664571 
-0.178006 -0.21959 -0.332518 -0.701105 0.710468 0.060715 
0.146304 -0.244829 0.145199 -0.218769 -0.607918 0.763266 
-0.0392736 0.0887929 0.242228 -0.0485375 0.155419 -0.986655 
0.135677 -0.146555 0.235806 0.224215 0.231259 -0.946703 
-0.0773156 0.194842 0.145767 0.00512566 -0.556986 0.830506 
0.0531214 -0.124624 0.144314 0.0212085 0.0859418 0.996074 
0.0629786 0.150226 0.333285 -0.0336994 0.89207 0.450639 
-0.0151099 -0.170699 0.234712 -0.0306898 0.0359674 -0.998882 
0.126906 0.0915039 0.147011 -0.727301 0.0717569 -0.682556 
0.0527578 0.153306 0.433312 -0.0277612 0.966634 -0.254653 
0.210603 -0.223337 -0.463852 -0.946593 -0.287752 -0.145466 
0.148796 -0.159388 0.114736 -0.995321 -0.0179147 -0.0949486 
0.0194706 -0.0581747 0.23759 0.0546247 -0.065181 -0.996377 
0.0326501 0.0355952 0.237889 0.0661068 0.186322 -0.980262 
-0.0966947 0.0779636 0.122579 -0.885494 0.273606 0.375553 
-0.142654 0.130995 -0.173156 -0.898632 -0.437781 -0.028439 
-0.0692424 0.19366 0.22254 -0.398699 -0.799521 -0.449227 
0.156979 0.14722 -0.202694 -0.692254 0.718514 -0.06723 
-0.223224 -0.126072 0.199214 0.956316 0.0654926 0.284903 
0.159959 -0.171732 -0.135137 -0.708956 -0.704771 0.0260729 
-0.211678 0.232409 0.364898 0.058863 -0.973632 0.2204 
-0.193988 -0.205762 0.147542 0.00435577 -0.0242798 0.999696 
0.13742 -0.159105 0.145009 0.256466 -0.292298 0.921296 
-0.215447 -0.138954 0.145866 -0.0533471 -0.0951566 0.994032 
0.0107743 0.191407 0.255502 0.165762 0.763394 -0.6243 
0.186959 0.0194189 -0.200676 -0.938938 0.194412 0.283901 
0.00157935 0.202509 0.262131 -0.0270548 -0.988896 -0.146124 
-0.163594 0.15095 -0.299312 -0.900793 -0.421723 0.103543 
0.00646339 0.0359548 0.237927 0.00847146 -0.0335278 -0.999402 
0.175424 0.018277 0.147067 0.197804 -0.0716604 0.977619 
0.111788 -0.155536 0.0404283 0.62214 0.780107 -0.0661423 
0.0191955 0.148666 0.344576 -0.14725 0.986609 0.0701457 
0.175242 0.13847 -0.178179 -0.901788 -0.129783 0.412228 
-0.0162717 0.032239 0.236694 0.0559902 0.289086 -0.955664 
-0.00201666 -0.0452306 0.146958 -0.0417316 -0.130576 0.99056 
0.154207 -0.197403 -0.260514 0.817558 0.562363 0.123879 
-0.181232 -0.212863 -0.251609 0.641609 0.751515 -0.153502 
-0.213813 0.243797 0.475902 0.199134 -0.976382 0.0838057 
0.206514 0.188467 -0.491467 -0.70297 -0.69535 -0.149403 
-0.180654 -0.216161 -0.413778 -0.921942 -0.299277 0.245878 
0.0327623 -0.158814 0.23296 -0.2052 0.135201 -0.969337 
0.115191 0.0061179 0.241577 -0.159177 -0.0837189 -0.983694 
0.206791 -0.0699527 0.228963 -0.84329 0.10185 -0.52772 
-0.175448 0.13366 -0.297605 -0.147872 0.963952 0.2212 
-0.0345053 -0.0624067 0.238002 -0.148047 -0.132796 -0.980024 
0.162106 -0.173016 -0.0316843 -0.811793 -0.578269 -0.0812241 
0.0721742 -0.125088 0.236883 0.11883 0.351039 -0.92879 
0.00810682 0.128847 0.147585 -0.234748 -0.0501891 0.97076 
-0.162415 0.150492 -0.181057 -0.396277 -0.737392 0.547006 
0.191702 -0.242932 0.186335 -0.27618 0.958149 -0.0753313 
0.152998 -0.183253 -0.239301 0.685761 -0.645049 0.337111 
-0.162114 0.137176 -0.267414 -0.799344 0.572117 0.183662 
0.167266 0.17618 0.236105 -0.0900251 -0.441639 -0.892665 
0.030374 -0.213315 -0.204783 -0.00484473 0.621905 0.783078 
-0.0814786 0.161359 0.464882 0.0605536 0.960025 -0.273288 
0.0132874 0.242662 0.43736 0.115475 -0.977559 -0.176192 
0.141334 0.133673 0.0365691 0.366909 -0.929851 -0.0274698 
-0.144814 -0.149816 0.134924 0.77661 -0.621637 0.102201 
-0.117559 -0.211941 0.236796 -0.0658643 0.109726 -0.991777 
0.0971033 0.0888487 0.141212 0.655849 -0.743006 -0.133433 
-0.103479 0.0615687 0.145156 -0.461543 0.836217 0.296175 
0.0785936 0.152358 0.425384 -0.0647717 0.989962 -0.125617 
-0.138988 0.0933386 0.147682 0.0799213 0.0508917 0.995501 
-0.191025 0.203255 0.325833 -0.00681135 -0.188657 0.982019 
-0.135704 -0.173499 -0.0207261 -0.587713 0.80754 0.0497186 
0.210315 -0.0168671 0.163253 -0.99697 -0.0123859 0.0767961 
0.0853612 0.148547 0.390526 0.140333 0.970967 -0.193726 
0.193611 -0.222329 -0.490079 0.621723 -0.782276 -0.0387845 
0.157854 0.119623 -0.0447983 -0.778673 0.599335 -0.185651 
-0.201449 0.157714 -0.444838 0.447071 0.89364 0.0391733 
-0.150904 0.139215 -0.234536 -0.972978 0.0884714 0.213274 
0.150001 -0.244496 0.184174 -0.0834421 0.986163 -0.14325 
-0.186203 -0.221072 0.244698 0.747556 0.140892 -0.649083 
-0.227064 0.18728 0.333551 0.993275 -0.0966868 0.0636946 
-0.120167 -0.163268 -0.047518 -0.786852 0.60452 0.124177 
-0.149406 0.140887 -0.109895 -0.842601 -0.538257 -0.0174317 
-0.13307 0.089823 0.0354886 0.749836 0.66096 -0.0296451 
0.196165 -0.239672 -0.487437 0.622839 0.781108 -0.0440709 
-0.0324685 0.192916 0.229793 0.864923 -0.494991 -0.0830133 
-0.0882929 0.232736 0.36321 0.0264278 -0.95551 0.293773 
0.215505 0.177114 -0.479539 -0.949365 -0.311184 0.0432495 
-0.132255 -0.201657 0.147933 0.00151265 -0.14037 0.990098 
-0.149022 -0.237292 0.236082 -0.0279502 0.367572 -0.929575 
0.114053 0.106496 -0.0236143 0.82405 -0.56391 0.0542793 
-0.178565 -0.101775 -0.199247 -0.622394 0.0990943 0.776405 
-0.0401654 0.152684 0.241351 0.0327222 -0.0423243 -0.998568 
0.209355 -0.133029 0.234284 -0.631627 0.0718343 -0.771937 
0.132612 -0.179513 0.106841 0.961321 0.13829 0.238196 
-0.126893 0.115175 0.13265 -0.757765 -0.650447 0.0520629 
-0.120782 -0.161153 -0.00411554 -0.719882 0.694029 -0.00965479 
0.172614 0.0324876 -0.180205 0.992128 0.0314889 -0.121203 
0.151756 0.161798 0.455987 -0.0456171 0.972008 -0.230479 
-0.056855 0.243172 0.414637 -0.0398515 -0.994121 0.100676 
-0.18568 0.160765 -0.418556 -0.629558 0.77202 0.0874167 
-0.213681 -0.0301096 0.197871 0.99856 0.00856169 0.0529586 
-0.16368 0.152424 -0.305198 -0.816624 -0.542978 -0.195701 
0.208145 0.0619918 0.193977 -0.991712 -0.0375647 -0.12287 
-0.0578333 -0.166879 0.232545 0.103343 -0.497971 -0.861014 
-0.208097 -0.0668386 0.145356 0.070342 -0.0441419 0.996546 
-0.185055 0.159831 0.145726 -0.200985 0.00520807 0.97958 
-0.206116 0.11215 0.14901 0.395755 0.539794 0.742967 
0.205159 0.0197194 0.210701 -0.969777 -0.1193 0.212838 
0.172778 -0.141632 -0.198984 0.880074 0.103393 0.463442 
-0.22097 -0.180562 0.18354 0.998536 0.0454735 -0.0293061 
0.0813874 0.223168 0.4968 0.238651 0.180395 -0.954203 
0.21068 0.176121 0.487784 -0.100305 0.709864 -0.69716 
0.17008 -0.246331 0.192332 0.0264201 0.999551 0.0141233 
0.228619 0.192017 0.451439 -0.997786 -0.0564198 0.0352252 
0.121446 0.0694299 0.146692 -0.0835297 -0.0040381 0.996497 
-0.145389 0.104061 0.240004 -0.160924 0.00923071 -0.986924 
0.02645 -0.133411 0.145277 -0.00272143 0.186953 0.982365 
0.196648 0.240721 0.453503 -0.0932641 -0.979062 -0.180942 
-0.169125 -0.246455 0.175238 -0.115926 0.992094 -0.048075 
-0.179849 -0.15981 0.148645 -0.405503 0.0677298 0.911581 
-0.170688 -0.244682 0.228186 -0.0518856 0.924295 -0.378136 
0.0611242 0.210163 0.327356 0.00551156 -0.175014 0.984551 
-0.203605 0.183591 -0.499248 -0.125502 -0.154806 0.979941 
-0.202244 -0.0888964 0.147555 0.0105304 -0.115096 0.993299 
-0.136241 -0.205903 -0.175929 -0.175579 0.0539785 -0.982984 
-0.0943968 0.161428 0.464695 0.0465819 0.92944 -0.366022 
0.160854 0.15137 -0.237709 0.74339 -0.667928 0.0352727 
-0.215412 -0.0683566 0.166378 0.966379 -0.160882 -0.200571 
-0.116506 0.104626 0.0908262 -0.659615 -0.640973 0.392506 
-0.0117021 0.179843 0.240499 -0.532236 -0.370165 -0.761381 
0.141953 0.133161 -0.152034 0.715929 -0.698074 -0.0117583 
-0.000859569 -0.246808 0.204869 -0.0236069 0.999585 -0.0164994 
-0.0925134 0.176097 0.147068 -0.157046 -0.207264 0.965597 
-0.171472 0.158237 0.448134 0.0147812 0.975426 -0.219833 
0.01159 -0.214469 -0.202111 0.0858703 0.963169 0.254816 
0.195728 0.16202 -0.466614 0.728281 0.669319 0.147032 
0.0996529 0.109097 0.238337 -0.00689486 0.108817 -0.994038 
-0.183516 -0.0371865 -0.173073 0.187267 -0.303611 -0.934212 
0.0209623 0.19212 0.174007 0.304417 -0.951412 0.0463125 
0.0458578 -0.240607 0.230568 -0.0218817 0.628969 -0.777122 
-0.124123 -0.134107 0.120101 0.607703 -0.77915 0.153693 
-0.189461 -0.130209 -0.191934 0.905406 -0.391501 0.164216 
0.200693 -0.209341 0.238984 -0.266482 -0.017513 -0.963681 
-0.187932 -0.0382933 -0.194163 0.789865 -0.537325 -0.295627 
-0.227801 0.204862 0.345525 0.998588 0.0244836 -0.0471529 
-0.152934 0.141687 -0.130174 -0.737198 -0.675674 0.0019478 
0.0588777 -0.103244 0.146758 0.12158 0.117814 0.985565 
0.185009 6.12292e-06 -0.192657 -0.945758 -0.249726 0.207796 
-0.203224 -0.219278 -0.33835 0.426692 0.777815 0.46145 
0.172945 -0.174845 -0.196208 0.809803 -0.548459 -0.208353 
0.201782 0.0592496 0.235338 -0.750694 -0.121163 -0.649444 
-0.0664243 -0.243759 0.224654 0.242171 0.90342 -0.353816 
-0.141345 -0.171952 0.144748 -0.42267 -0.213543 -0.880766 
-0.155379 -0.229877 0.239507 -0.0518578 0.213822 -0.975495 
-0.143778 -0.151916 -0.00821772 0.70306 -0.710862 0.0195525 
-0.119639 -0.135708 0.147908 0.101145 0.0365885 -0.994199 
0.0159526 0.203755 0.326084 -0.0787688 -0.273852 0.95854 
-0.0286253 0.192534 0.326159 -0.0985343 -0.303588 0.947695 
-0.175882 0.169829 0.327792 0.0290695 0.106548 0.993882 
-0.0667266 0.164368 0.240846 -0.106723 0.028184 -0.993889 
-0.180366 -0.219522 -0.299434 -0.585978 0.801807 -0.117201 
0.105789 0.194823 0.215683 0.0228525 -0.999698 0.00906037 
0.160208 -0.188199 -0.270038 0.781272 -0.62038 -0.068874 
-0.120635 0.0957544 -0.013325 -0.788178 0.597282 0.148421 
0.142756 0.100708 0.0570417 -0.760109 0.642073 0.0998845 
-0.179958 -0.190008 -0.330317 -0.221682 -0.888523 0.401726 
0.141635 0.244324 0.454477 -0.0536665 -0.950141 -0.307168 
0.18449 0.147224 0.359987 0.270109 0.960756 0.0631578 
-0.152898 -0.022061 0.23895 0.0125685 -0.145053 -0.989344 
0.212853 0.205412 0.492586 -0.357325 -0.261971 -0.896488 
-0.0503771 0.196573 0.268363 0.745926 0.643341 -0.172358 
-0.0287951 0.193266 0.21281 -0.147757 -0.979047 0.140123 
0.148136 -0.157678 0.0755968 -0.642716 -0.764143 0.0547846 
-0.109843 0.064346 0.126234 0.123558 0.925011 0.359289 
0.108087 -0.00813519 0.237414 -0.000627998 -0.00938574 -0.999956 
0.155436 -0.169551 -0.181446 -0.325773 -0.944962 0.0303265 
-0.118424 0.152367 0.42566 0.163702 0.938549 -0.303853 
0.114681 0.102931 0.0649271 0.815023 -0.572863 0.086978 
-0.0904484 0.15821 0.330002 -0.0574512 0.136033 0.989037 
0.153344 -0.169605 0.238305 -0.139256 -0.153704 -0.978255 
-0.126167 0.180406 0.238326 -0.0317776 -0.323078 -0.945839 
-0.149334 -0.175822 0.0532616 0.622288 0.781487 -0.0451078 
-0.152246 -0.19117 -0.177533 -0.676127 0.704511 -0.215674 
0.174877 0.132963 -0.184183 0.962426 0.0675996 0.262994 
-0.184602 -0.0748112 -0.205702 0.0304869 0.0926973 0.995227 
0.171502 -0.196605 -0.150977 -0.805384 0.563208 -0.184808 
-0.115689 -0.133417 0.152675 0.190559 0.279253 -0.941119 
0.008201 0.230019 0.498974 -0.292886 -0.0510052 -0.954786 
0.0717139 0.172725 0.487592 0.0281454 0.696154 -0.717341 
-0.0892063 -0.198374 0.144822 -0.163132 -0.0348092 0.98599 
0.0255321 0.208029 0.304671 -0.372028 -0.819384 -0.436124 
-0.0381851 0.201039 0.164632 0.0746248 -0.997193 0.00616409 
-0.151334 0.0341759 0.146663 0.0089813 -0.0206482 0.999746 
0.140291 0.167637 0.240024 -0.141593 -0.120186 -0.982602 
-0.163955 0.153332 -0.202766 -0.400699 -0.148467 -0.9041 
-0.17848 0.134307 -0.160439 0.979453 -0.130522 0.15374 
-0.109255 0.0932899 0.0267353 -0.900648 0.394993 0.181143 
-0.199733 0.15152 0.398817 0.0963131 0.983956 -0.15018 
0.0824395 0.156684 0.439628 -0.0862762 0.970527 -0.225019 
0.148122 0.243579 0.428543 0.0291068 -0.996475 0.078681 
-0.0737029 0.1563 0.445898 0.0304775 0.981476 -0.189144 
-0.0641881 0.24379 0.481228 0.0206516 -0.997865 -0.0619654 
-0.00606216 0.198498 0.242053 -0.451148 -0.890258 -0.0624947 
-0.147056 0.194638 0.500688 0.923532 -0.352291 -0.151582 
0.165585 -0.185737 -0.0753387 -0.769351 0.577873 -0.272325 
0.222045 0.206992 0.368124 -0.540828 -0.00460912 0.84112 
0.149522 0.107923 -0.0207879 -0.607497 0.788305 0.0975854 
-0.211121 0.154118 0.41911 0.153405 0.963784 -0.218146 
-0.136577 -0.141089 0.0644408 0.815086 -0.578099 -0.0378949 
-0.0878295 0.192746 0.324748 -0.110779 -0.182397 0.976964 
0.126975 -0.244616 0.21195 0.31349 0.92618 0.209558 
0.194811 0.0927568 0.145971 0.0112261 0.103078 0.99461 
-0.147969 -0.159523 0.0945353 0.979516 -0.193555 -0.0555424 
-0.165891 -0.174773 -0.103834 0.659228 -0.725252 -0.198563 
-0.117318 0.244371 0.41953 -0.0192829 -0.993784 0.109647 
0.216401 -0.166825 0.22572 -0.948693 -0.16551 -0.269421 
0.142945 0.113074 0.119488 -0.676362 -0.728629 -0.10786 
-0.212851 -0.226213 0.203457 0.761236 0.646491 0.0506882 
-0.161327 0.14939 -0.273119 -0.776668 -0.619653 0.113211 
-0.194519 -0.234504 -0.497737 -0.736829 0.107636 0.667456 
-0.126143 -0.0685137 0.146896 0.0375685 -0.0242693 0.998999 
-0.227135 0.157401 0.375968 0.928845 0.37027 0.0121683 
0.16995 -0.247111 0.19911 0.0977958 0.988769 0.113012 
0.188495 0.133291 -0.185613 -0.989305 0.112036 0.0933975 
0.138728 -0.162767 0.142504 0.695438 -0.706726 0.130008 
0.160083 0.00673462 0.148424 -0.104364 -0.099963 0.989503 
-0.0730864 0.194737 0.157745 0.0284729 -0.999278 -0.0251384 
0.146249 -0.242848 0.227314 0.0079697 0.94842 -0.316915 
-0.136909 0.119447 -0.139814 -0.521174 0.78175 0.34241 
0.185914 0.242614 0.421804 0.0516636 -0.997442 0.0494018 
-0.156391 0.116856 0.0308227 0.955057 0.202941 0.21606 
0.056154 -0.190111 0.148349 0.0246604 -0.21448 0.976417 
-0.214136 0.185355 -0.483832 0.746136 -0.651878 -0.135409 
0.190263 -0.0873353 -0.205433 0.42081 0.108406 0.900648 
0.116505 0.0876109 0.146807 0.107767 0.304297 -0.946462 
0.139546 -0.185113 0.038926 0.0965719 0.991281 -0.0896465 
-0.166354 0.122608 -0.0783768 0.724914 0.688071 0.0325329 
0.0685593 0.154286 0.444153 -0.188841 0.934567 -0.301536 
0.182915 -0.190287 -0.293898 -0.503325 -0.837657 0.212117 
-0.219709 0.229657 0.36619 0.540304 -0.820628 0.186123 
-0.158516 0.194835 0.199732 0.16684 -0.985293 -0.0369088 
-0.00883558 0.147382 0.361026 -0.0380078 0.998783 -0.0314348 
0.203829 0.154883 0.399871 -0.0299205 0.996494 -0.0781294 
-0.139921 -0.181759 -0.0797433 -0.792562 0.609626 0.0141892 
0.14761 0.166831 0.470182 0.0174852 0.971167 -0.237757 
0.176922 0.22968 0.350732 0.0122402 -0.963384 0.267844 
-0.165253 0.117938 -0.208099 0.818189 0.543781 0.186732 
0.170929 0.144559 -0.322289 0.713286 0.697945 0.0639913 
-0.105607 0.161881 0.459656 0.00658309 0.94346 -0.331422 
-0.191055 -0.117574 -0.176111 0.972715 -0.0982188 -0.210185 
-0.190392 0.159816 -0.430441 -0.694498 0.699186 0.169738 
0.151124 -0.193807 -0.214618 0.727754 0.68512 -0.0313818 
0.132493 0.10276 -0.0876765 0.699895 0.707172 0.100269 
0.208156 -0.231045 0.20207 -0.72877 0.684741 0.00495152 
-0.134427 -0.00997374 0.146903 -0.165328 -0.0261505 0.985892 
0.136617 -0.108481 0.2344 0.426637 0.601244 -0.675637 
0.230279 0.178065 0.415781 -0.994762 0.0368709 0.0953324 
-0.218427 -0.119221 0.22129 0.991216 -0.10955 -0.0740936 
0.0619639 0.0405706 0.238627 0.0812784 -0.0714811 -0.994125 
-0.113746 -0.14027 0.0356122 -0.814402 -0.54595 0.196692 
-0.135114 0.107886 -0.0964051 -0.681627 0.604866 0.411731 
-0.168461 0.0209849 0.147035 -0.208917 0.0629567 0.975905 
-0.112622 -0.106158 0.149299 0.122052 -0.274986 0.95367 
-0.218569 -0.120025 0.213801 0.996903 -0.0783218 0.00712073 
-0.151746 -0.196414 -0.177638 -0.547622 -0.107782 -0.829754 
0.106508 0.061824 0.148408 -0.151717 -0.0913427 0.984194 
0.197276 -0.152281 0.241119 -0.127165 -0.110745 -0.98568 
0.120575 0.0526115 0.23977 -0.126704 0.263608 -0.956272 
0.0230625 0.160527 0.238665 -0.00646073 -0.133279 -0.991057 
0.0995593 0.0941323 0.0601063 0.864702 -0.463665 -0.193148 
-0.0672352 0.147877 0.343795 -0.2016 0.970737 0.130486 
-0.206261 -0.0107229 0.238971 0.798055 -0.11522 -0.591467 
-0.203506 -0.243288 -0.477596 -0.0355595 0.996619 -0.0740696 
0.160727 -0.172157 -0.0917268 -0.764551 -0.641815 0.0594562 
-0.0372603 0.243304 0.444149 -0.0965895 -0.995243 -0.0127373 
0.0148524 0.19625 0.21505 -0.560982 -0.626042 -0.541635 
0.154664 0.0744644 0.146764 0.0181479 0.0131922 0.999748 
-0.200385 0.0903995 0.23602 0.783738 -0.0360326 -0.620045 
-0.0777209 0.161429 -0.202592 -0.102516 -0.667629 0.737402 
-0.0460309 -0.24623 0.212093 -0.0330272 0.992601 -0.11684 
-0.146024 0.134199 -0.157879 -0.728849 -0.68453 -0.0140423 
0.125884 0.095233 -0.0481542 0.564067 0.755328 0.333628 
-0.0743716 0.19171 0.323022 0.0726194 -0.0754764 0.9945 
0.137888 0.066705 0.148157 -0.0369407 0.0457991 0.998267 
0.152282 -0.165175 0.0740161 -0.897244 -0.429454 -0.102569 
-0.0258039 -0.15231 0.235296 0.508268 0.0695188 -0.858388 
-0.0505369 0.20396 0.267771 0.322698 -0.931522 0.167726 
-0.115508 0.0410021 0.239338 0.0130836 -0.0906937 -0.995793 
-0.0127539 -0.0535726 0.148639 0.126576 -0.141839 0.981764 
0.163388 -0.198299 -0.122559 -0.531126 0.845037 -0.0617786 
0.227172 0.181488 0.442193 -0.999673 -0.0199916 -0.0159641 
0.117256 0.153805 0.327139 0.349133 0.839463 0.416422 
-0.12762 0.112774 0.146401 -0.257845 -0.227229 -0.939086 
-0.0151719 0.155934 -0.205971 0.195342 -0.100796 0.975542 
0.1831 -0.195193 -0.238717 -0.82295 -0.567953 0.0135194 
-0.0910744 0.161733 0.330081 0.0926193 0.313935 0.944916 
-0.213946 -0.229703 -0.476619 0.912372 0.394069 -0.110847 
0.00179132 0.192365 0.167883 -0.286451 -0.948989 0.131777 
-0.170429 0.17536 0.144066 -0.385185 0.134767 0.912946 
0.17037 0.0237627 0.23799 0.0944757 -0.0798107 -0.992323 
0.204566 0.0514137 0.145355 0.214118 0.189325 0.958285 
-0.0604599 0.18732 0.235659 -0.00933541 -0.522479 -0.852601 
-0.04195 -0.213677 -0.18373 0.116201 0.992704 -0.0321785 
-0.0782896 0.0621074 0.148409 0.0257876 -0.025599 0.99934 
-0.088946 0.245615 0.465338 0.148645 -0.974813 0.166263 
0.120956 0.243655 0.426894 -0.195583 -0.980678 -0.00412209 
0.114986 0.0427555 0.239278 -0.038295 0.00205385 -0.999264 
0.0924091 0.0904598 0.081641 0.516409 -0.790885 -0.328362 
0.184116 0.151833 0.389034 -0.0488359 0.979881 -0.193516 
0.146387 0.150835 0.239601 -0.469699 -0.129239 -0.873315 
-0.117475 -0.149918 0.146967 0.169649 0.0978863 -0.980631 
0.110012 0.151085 0.333456 0.0634906 0.897644 0.436124 
0.226408 0.230189 0.481415 -0.97413 0.0775443 -0.21227 
-0.15952 0.172402 0.327844 -0.20441 0.198759 0.958494 
-0.0466396 0.198975 0.219124 0.554498 -0.831205 0.0403765 
0.197434 0.0621844 0.237493 -0.425231 0.0877672 -0.900819 
-0.0421393 -0.085924 0.235737 0.156036 -0.0191745 -0.987565 
-0.108815 0.204458 0.4963 -0.0496181 -0.154354 -0.986769 
0.210593 -0.0756186 0.148624 -0.368222 0.116954 0.922352 
0.156087 -0.222578 0.146506 0.0866837 0.0519579 0.99488 
-0.192485 -0.243481 0.206834 0.367334 0.927723 -0.0662962 
-0.17724 0.192723 0.492409 -0.0258556 -0.218775 -0.975433 
-0.0718347 0.240764 0.425981 -0.700155 -0.084874 0.708927 
0.154403 0.243975 0.410906 0.0708792 -0.977412 0.199101 
-0.175267 -0.0882705 0.240932 0.02289 -0.160979 -0.986692 
-0.175464 0.115344 0.147251 -0.168406 -0.179153 0.969301 
0.136342 0.129909 -0.182542 0.843099 0.53582 0.0456133 
-0.152957 0.0190875 0.146463 0.17601 -0.167916 0.969961 
0.224665 0.23142 0.376154 -0.689862 -0.705248 0.163452 
-0.210156 0.113817 0.193119 0.952971 -0.204113 0.224015 
-0.0143147 0.0822711 0.238829 0.0229803 -0.048371 -0.998565 
0.0612745 0.16155 -0.203028 -0.0464081 -0.37047 0.927684 
-0.188674 -0.037353 0.242993 -0.339214 0.0955009 -0.935849 
0.156741 -0.246913 0.197225 -0.0473752 0.998836 -0.00906782 
-0.178109 -0.189617 -0.13161 0.765238 0.61486 -0.190674 
0.096629 0.162792 -0.187793 0.0271055 -0.992079 -0.122659 
0.0525115 0.167884 0.327649 0.29243 0.390895 0.872746 
0.114208 0.0731564 0.0836647 -0.403364 0.913903 -0.0455928 
0.150908 -0.24959 0.192674 -0.146089 0.987476 0.0595809 
-0.041091 0.11611 0.14401 -0.325967 0.217787 0.919954 
0.00412228 0.181971 0.320073 -0.281592 0.491498 0.824097 
-0.0435186 0.198396 0.294595 0.0374951 0.993975 -0.102995 
-0.127991 -0.156006 0.147113 -0.0113349 -0.0362533 -0.999278 
0.0713004 0.226738 0.348443 0.137762 -0.965708 0.220067 
-0.121378 -0.160863 -0.0364942 -0.919439 0.387177 0.0687437 
0.209211 0.193993 0.324754 0.0155516 -0.309342 0.950824 
0.0872981 0.0599171 0.238379 0.0380118 -0.266252 -0.963154 
-0.129722 0.179721 0.146022 -0.224539 0.0489396 0.973235 
-0.065457 0.147447 0.408731 0.132523 0.0323225 0.990652 
0.176388 0.212125 0.327551 0.265001 0.371318 0.889886 
0.188351 -0.209493 -0.285337 -0.753913 0.651392 -0.0854637 
0.161609 0.152857 -0.332437 0.921177 0.386306 0.0469121 
0.146938 0.13737 -0.0978237 0.728325 -0.671975 0.134131 
0.167754 -0.204273 -0.353005 0.953401 -0.238252 0.1851 
0.134764 -0.237865 0.235916 -0.0943699 0.574922 -0.812748 
-0.200769 0.168679 0.230853 0.802691 -0.489734 -0.340364 
0.167875 0.158052 -0.311738 0.813396 -0.509966 0.279859 
-0.0103978 0.148257 0.35094 0.00703835 0.979085 0.203331 
0.171967 0.152049 0.346602 -0.0437912 0.997242 0.0599214 
-0.12775 0.177959 0.149544 -0.221049 -0.0268642 0.974893 
0.0661645 0.161266 0.462416 0.002794 0.934526 -0.355883 
0.0491781 0.197641 0.195523 -0.465168 -0.882422 -0.0703541 
0.116298 0.19719 0.157398 -0.0754735 -0.981823 -0.174149 
-0.13396 0.12286 -0.100008 -0.72186 -0.683872 0.106007 
0.1792 -0.103897 -0.176004 0.129249 -0.0376772 -0.990896 
0.0618747 -0.236646 0.151072 -0.0544288 0.54278 0.838109 
0.135244 0.171954 0.487589 0.146987 0.757721 -0.63581 
0.186477 0.151168 -0.246307 -0.71504 -0.682575 -0.151026 
0.181978 0.00949646 0.147064 0.121585 0.156704 0.980133 
-0.0436317 0.05255 0.24125 0.222856 0.10727 -0.968931 
0.135308 -0.161578 0.235629 0.0690596 -0.0979546 -0.992792 
-0.189515 0.172106 -0.33267 0.41539 -0.908271 0.0499478 
0.051853 0.162907 -0.190178 -0.342039 -0.925557 -0.162334 
0.192567 0.17981 -0.477317 0.998911 -0.0466392 0.00074361 
-0.201519 0.168931 -0.490424 -0.539878 0.8328 0.12238 
0.0998254 -0.0806172 0.14681 0.0274552 -0.00592438 0.999605 
0.172435 0.1293 -0.269311 -0.442979 0.88606 0.136626 
0.138821 -0.152111 -0.0961102 -0.153673 -0.958381 0.240605 
-0.138825 -0.226992 0.146201 -0.0289167 0.000455074 0.999582 
-0.16146 -0.169521 -0.0757003 0.749994 -0.65091 -0.11758 
-0.0778268 0.147452 -0.181976 0.312246 0.944929 -0.098037 
-0.100429 0.197155 0.190533 0.103849 -0.983179 0.150246 
0.166497 -0.107289 0.147039 -0.0816552 -0.00297329 0.996656 
0.219624 0.212573 0.327048 -0.490016 -0.569736 0.659762 
-0.134766 -0.0979465 0.236966 0.086913 -0.107509 -0.990398 
0.147248 0.174448 0.240237 -0.222683 -0.189738 -0.956249 
-0.17146 0.224877 0.347986 0.0884091 -0.93065 0.35507 
0.116512 -0.126486 0.0775398 -0.613461 -0.777065 0.140841 
-0.209071 -0.15982 0.144141 0.0256564 -0.200109 0.979438 
-0.19057 -0.18736 0.241458 -0.0196716 -0.163895 -0.986282 
0.195575 0.187512 -0.494262 0.757727 -0.649055 0.0676527 
0.181396 -0.246033 0.217042 -0.196803 0.980438 0.00321349 
0.0343207 0.198376 0.294695 -0.0811463 0.930136 -0.358138 
0.210723 -0.0199688 0.193153 -0.999732 -0.0135623 0.0187687 
0.145149 0.105053 -0.00880453 -0.673152 0.739303 -0.0172787 
0.0660889 0.0507181 0.143542 -0.137657 -0.058091 0.988775 
-0.0775847 0.0141961 0.144341 0.158331 -0.068876 0.984981 
-0.00950221 -0.117171 0.235531 0.0257763 0.0308613 -0.999191 
-0.107489 0.161451 -0.17795 -0.0955484 -0.782663 -0.615069 
-0.187793 -0.244801 0.205206 0.256149 0.966108 -0.0319796 
0.0796497 -0.0326924 0.146104 0.0878354 0.126888 0.98802 
0.0376892 0.188845 0.174463 -0.0467197 -0.970236 0.237609 
-0.0296204 0.148429 -0.198328 -0.0365711 0.971303 0.235016 
0.218816 -0.177146 0.203988 -0.975703 0.0456716 -0.214286 
-0.165513 0.149807 -0.338762 -0.993809 0.111091 0.0012595 
-0.108081 0.146394 -0.180628 0.00614849 0.99998 -0.00145613 
-0.098657 0.0775183 0.0988399 -0.701688 0.683027 0.20275 
-0.209825 0.0555465 0.21853 0.996095 -0.022057 -0.0854867 
0.211077 -0.228313 -0.44949 -0.714924 0.688017 -0.124567 
-0.154225 0.139506 -0.209769 -0.910539 -0.318376 0.263733 
-0.169628 0.103356 0.146867 0.0725897 0.0389169 0.996602 
-0.0976265 0.165108 -0.203245 -0.0465857 -0.919906 -0.38936 
0.00254537 0.211371 0.327551 -0.317234 0.0870565 -0.944341 
0.0294555 0.150859 0.425912 -0.00591376 0.993047 -0.117566 
-0.198172 0.164336 -0.46778 -0.660712 0.69917 0.273169 
-0.109054 -0.0586272 0.237207 0.0672353 -0.0753389 -0.994889 
-0.106767 -0.132771 0.0738831 -0.719248 -0.680679 0.139132 
-0.0830479 -0.212455 0.237749 -0.188978 0.220357 -0.956938 
-0.219687 -0.151702 0.158722 0.987239 0.14059 -0.074795 
0.0622377 0.122132 0.238375 -0.154208 0.0719063 -0.985418 
-0.170669 -0.18739 -0.0930879 0.659753 0.751442 -0.0077734 
0.116774 -0.198969 0.147159 -0.0219286 0.000358835 0.999759 
-0.119742 0.146079 0.146896 0.000175436 0.00612499 0.999981 
0.202292 0.0787868 0.231347 -0.830043 0.126936 -0.543061 
-0.0902807 -0.246703 0.208953 0.0218499 0.99456 0.101851 
0.0403005 0.22689 0.349282 -0.00688408 -0.916636 0.399663 
0.135889 -0.171995 0.239047 -0.0267045 0.0703389 -0.997166 
-0.0586226 0.146448 0.381817 0.262973 0.933739 -0.242849 
-0.176649 -0.184738 -0.19076 0.925991 -0.371916 -0.0649448 
0.143813 0.121734 -0.178086 0.676403 0.658732 0.329473 
-0.126563 0.112451 0.0193094 -0.687627 -0.724978 -0.039683 
-0.211352 0.178529 0.493366 0.352075 -0.21453 -0.911054 
-0.173789 0.112424 -0.20039 -0.930114 0.03594 -0.365509 
0.134602 0.0973288 -0.0733212 0.130641 0.990162 -0.0501175 
-0.00682102 0.0282218 0.236738 0.0616896 0.017056 -0.99795 
-0.157488 0.148836 -0.190269 -0.176528 -0.91949 -0.351246 
-0.0474353 0.201258 0.179245 -0.168755 -0.980744 0.0982942 
0.155102 0.132728 -0.0339271 -0.663634 -0.723713 -0.189285 
-0.17122 -0.127034 0.149595 -0.00710498 0.212568 0.97712 
0.109938 0.0086447 0.148788 0.194437 0.153008 0.968908 
-0.0822808 -0.160013 0.145803 0.0240472 -0.0283828 0.999308 
0.0480557 0.191069 0.19923 0.295175 -0.951569 -0.0859482 
-0.195557 0.243067 0.492472 -0.0302906 -0.707541 -0.706023 
0.0388517 -0.213416 -0.1915 0.0147271 0.999835 -0.0106292 
0.194333 0.155048 -0.295846 -0.961265 0.275236 -0.0146722 
-0.126539 0.115104 0.0912174 -0.805957 -0.591557 -0.0222255 
-0.0127971 0.0560426 0.239164 -0.0513722 0.174102 -0.983387 
-0.0114208 0.0359267 0.237481 -0.0161149 0.138574 -0.990221 
0.00975075 -0.187227 0.146382 -0.390074 0.253951 0.885071 
0.187701 0.168153 0.47685 -0.00547141 0.959897 -0.280298 
0.0367606 -0.23445 0.145784 0.0283326 -0.0435696 0.998649 
-0.0265782 -0.126072 0.233946 -0.140554 0.0459561 -0.989006 
-0.175488 0.00730543 -0.178863 -0.928242 -0.114468 -0.353927 
0.117862 0.108371 0.130549 0.817345 -0.559998 -0.13546 
0.107723 -0.153681 0.0893783 0.664624 0.727906 -0.168602 
0.0154778 0.00767978 0.237801 0.245609 -0.124082 -0.961395 
0.0685833 0.146796 0.372677 0.0919591 0.984507 -0.149295 
0.0750357 -0.24993 0.202079 -0.00765322 0.987087 -0.160003 
0.126747 0.163569 -0.185772 -0.0591994 -0.996534 -0.0584368 
-0.0644896 0.0997617 0.145166 0.09825 0.0680792 0.99283 
-0.197727 0.0194333 0.146885 -0.193872 0.00909576 0.980985 
-0.179009 -0.129107 -0.192648 -0.891479 0.350545 -0.287023 
0.187508 -0.133143 0.240302 -0.379873 -0.0731233 -0.922144 
0.173256 0.0168871 -0.181993 0.994945 0.0358057 -0.0938185 
0.100911 0.151208 0.335339 -0.00126254 0.8876 0.460614 
-0.140508 -0.232836 0.14672 -0.0541341 0.0747949 0.995728 
-0.0760516 -0.244012 0.145619 -0.22716 0.387547 0.893423 
0.048804 0.208812 0.301732 -0.631507 0.684132 -0.364913 
-0.0358988 -0.0304054 0.236651 0.132355 0.0987108 -0.986275 
0.0606039 0.147154 0.358629 -0.0464026 0.992128 0.116315 
-0.0529348 0.243267 0.432905 -0.0740567 -0.997254 0.000707252 
0.180021 -0.24565 0.171958 -0.163109 0.970286 0.178718 
0.121802 0.192473 0.158552 -0.0573065 -0.995059 0.0810721 
0.193751 0.152279 0.363111 0.126654 0.991463 0.030982 
0.192216 -0.13214 0.237209 -0.0782733 -0.148325 -0.985836 
-0.175666 0.121072 -0.180702 -0.998081 0.0460887 -0.0413556 
0.0982364 -0.139906 0.0737752 0.987912 0.0765026 0.134822 
0.120817 0.0745853 0.239894 0.181088 -0.00116953 -0.983466 
-0.053918 0.181776 0.32301 0.0774203 -0.0387312 0.996246 
0.113579 -0.247975 0.144451 -0.15103 -0.694313 0.703647 
0.169919 0.133878 -0.289246 0.331364 0.930301 0.157284 
0.02655 0.149216 -0.20493 0.104394 0.820475 0.562069 
-0.182714 0.00468846 -0.176566 0.0420828 0.0168069 -0.998973 
0.200785 0.197589 0.325068 0.0524346 -0.195644 0.979272 
-0.187641 0.22374 0.330788 -0.120109 -0.582774 0.803709 
-0.048628 0.165029 0.474672 -0.0938697 0.90137 -0.422754 
-0.163287 -0.205546 -0.144498 -0.205193 0.975032 -0.0849065 
0.0194597 0.240923 0.417345 0.0309878 -0.998427 0.0467148 
-0.0539043 0.0344817 0.148468 0.110257 -0.0127368 0.993821 
0.0457455 0.216567 0.502897 -0.0157208 0.266469 -0.963715 
0.17557 0.232085 0.371658 -0.126246 -0.966184 0.224834 
-0.19231 -0.13368 -0.195684 0.968749 -0.248012 0.00389427 
-0.160696 0.116004 -0.152441 0.727769 0.67982 0.0905354 
-0.0724442 0.185214 0.237602 0.0189806 -0.459834 -0.887802 
0.192339 0.152306 0.386234 0.175175 0.98016 -0.0927342 
0.0559219 -0.205644 0.235913 0.0416503 -0.0882828 -0.995224 
-0.175967 0.1507 -0.359522 -0.694757 0.591217 0.409603 
-0.0430223 0.0369062 0.241018 0.267121 0.0480982 -0.962462 
0.146169 -0.175924 -0.183102 0.761603 -0.607359 0.226001 
-0.167601 0.148559 -0.17735 0.0757549 -0.938164 -0.337799 
