ply
format ascii 1.0
element vertex 817
property float x
property float y
property float z
property float nx
property float ny
property float nz
end_header
-0.703337 0.292216 -0.036791 0.716443 -0.697617 -0.00632991 
-0.538046 0.0130332 -0.816371 0.965389 0.00753805 -0.260704 
0.248813 -0.453945 -0.122761 0.0713455 0.970575 0.229987 
-0.0506309 -0.209511 -0.38566 0.118113 -0.427038 -0.896486 
-0.411692 -0.155527 0.999387 -0.0684035 0.0758185 -0.994773 
-0.648598 -0.342568 -0.26937 0.681261 0.408612 0.607387 
-0.369932 0.441121 -0.436431 -0.278368 -0.910714 -0.305142 
-0.463585 -0.280522 -0.39624 -0.110582 -0.295296 -0.948985 
0.572369 -0.00090718 0.358662 0.143241 0.434085 0.889411 
-0.524359 -0.0043049 -0.926956 -0.836129 0.053439 -0.545923 
-0.256662 -0.465142 -0.0424093 0.234938 -0.967721 -0.0912172 
-0.270467 -0.373758 -0.296457 0.234988 -0.764221 -0.600621 
-0.127213 0.254722 -0.298516 -0.557096 0.0570768 0.828484 
0.626775 -0.138708 -0.347028 0.382312 -0.190749 -0.904131 
-0.510144 -0.495541 -0.0998742 0.0288057 0.986459 0.161459 
-0.500531 -0.262793 0.782901 -0.706417 -0.257751 -0.659196 
-0.383356 0.459083 0.17691 0.273246 -0.906599 -0.321581 
-0.476242 0.308139 0.546441 -0.238185 -0.857668 0.455711 
-0.362625 0.222386 -0.918277 0.258221 0.369239 -0.89274 
-0.550124 -0.108673 0.383978 -0.368871 -0.107116 0.923288 
0.400132 0.168508 -0.0099777 0.151606 -0.988376 -0.0113586 
-0.364749 0.458282 0.529695 0.206518 0.970006 -0.128214 
0.248208 -0.469433 -0.0191029 0.0957999 0.994437 0.0437938 
-0.693165 -0.294486 0.245473 0.688502 0.231291 -0.687364 
-0.150816 0.46957 -0.107965 0.444832 0.88381 -0.144929 
0.752473 0.0174613 -0.206838 0.825398 0.405616 -0.392674 
-0.739981 -0.375245 -0.0902829 0.831238 0.448673 0.328233 
-0.542759 -0.0865384 0.854234 0.999642 0.0138996 0.022849 
-0.806837 0.053236 0.0139502 0.993454 -0.0450113 -0.104992 
-0.477581 -0.502308 0.0523993 0.0824464 -0.991465 0.10099 
-0.0195697 -0.363273 -0.251216 -0.0048826 0.841165 0.540757 
-0.800574 -0.217127 0.0323668 0.992472 0.111775 -0.0500666 
0.713424 0.0163994 0.271914 0.653673 0.495342 0.572144 
-0.282864 -0.181898 -0.420994 0.0511996 -0.247022 -0.967656 
0.058854 -0.420992 0.0784407 0.193525 0.974568 -0.112979 
-0.7861 -0.0178354 -0.100429 0.966452 0.00815 0.256719 
0.502687 0.177452 0.0117144 -0.0292839 0.99865 0.0429019 
-0.426144 0.384915 0.30759 0.250433 -0.967022 -0.0463912 
-0.475056 0.441557 -0.0543361 -0.440681 0.895632 -0.0603655 
-0.162112 -0.133532 0.432233 0.122649 -0.115429 0.985715 
0.745445 -0.23307 0.238034 -0.795038 0.399455 -0.456454 
-0.329803 -0.0494261 -0.964649 -0.609846 -0.0402298 0.791498 
-0.258119 0.155575 -0.816081 0.995028 0.0298138 -0.0950323 
-0.534279 0.108727 -0.386133 0.213468 -0.24834 0.944859 
-0.481663 0.132993 -0.941087 -0.563449 0.240291 -0.790434 
0.605323 -0.375528 0.219354 -0.381405 0.80965 -0.44609 
-0.275687 -0.0176067 0.771644 0.89676 -0.101449 -0.430731 
-0.445413 0.459897 0.594788 -0.185759 0.978134 0.0935241 
-0.274425 0.321279 -0.317656 0.00202377 -0.485736 0.874103 
-0.801416 0.0837324 0.0395855 -0.989408 0.0874517 0.115859 
-0.230345 -0.456509 -0.0616781 -0.244648 0.962317 0.118714 
-0.186512 0.491441 -0.0453716 0.330127 0.941852 -0.0626898 
-0.403935 -0.476625 -0.155994 0.198862 -0.951388 -0.235191 
-0.756639 0.194941 -0.206113 -0.876706 0.371852 -0.305143 
0.143339 0.119924 -0.209548 0.0749417 0.91429 -0.398067 
-0.475621 0.246227 0.690646 0.213672 0.3349 0.917707 
-0.51404 0.414983 0.654459 0.704659 -0.689678 -0.166732 
0.626881 0.159028 -0.00186978 0.344096 0.93772 0.047744 
-0.493728 0.194251 0.716761 0.484914 0.270544 0.831663 
0.603154 -0.410047 0.124016 -0.374728 0.910903 -0.172727 
0.595952 -0.417766 -0.0187737 -0.368776 0.922959 0.110235 
-0.631552 -0.276605 -0.318593 -0.632162 -0.266478 -0.727572 
-0.42758 0.449317 0.448127 -0.105722 0.955668 -0.274812 
-0.742779 -0.0817202 0.219497 -0.872601 -0.0697575 0.483427 
-0.710427 0.138735 -0.300882 -0.7182 0.0397825 -0.694698 
-0.534076 0.0496246 -0.798965 -0.937966 -0.0578902 0.34186 
-0.13202 -0.262902 0.382517 0.202611 -0.488899 0.848485 
0.390912 0.0889283 -0.300642 -0.113608 0.751724 -0.649619 
0.28422 0.143464 -0.0928376 0.108205 -0.99011 0.089293 
-0.753689 -0.13328 -0.187716 -0.907971 -0.0573447 -0.41509 
-0.780158 -0.26495 -0.0787432 0.951302 0.163441 0.261363 
0.341161 0.0908098 0.27688 -0.15725 0.841239 0.517291 
0.5421 0.000667164 -0.359505 0.101819 0.30826 -0.945837 
-0.168625 -0.245846 -0.382381 -0.110061 0.503459 0.856981 
-0.540072 0.057689 -0.395756 -0.245454 0.154044 -0.957091 
-0.35934 0.320862 0.616885 0.15577 0.965358 0.209332 
-0.725384 -0.0214001 -0.26139 -0.824777 -0.114841 -0.553674 
-0.50389 0.240041 0.384411 0.683376 0.388659 -0.618014 
0.749931 0.0423132 0.176586 -0.745548 -0.59518 -0.299866 
-0.363128 0.0514306 -0.420195 0.104596 0.185563 -0.97705 
0.253106 -0.362836 0.283413 -0.143374 -0.625683 0.766788 
-0.536383 0.376964 0.546282 0.995065 -0.0917306 0.0378258 
-0.526029 0.0886226 -0.903986 0.902697 -0.133458 0.409057 
-0.303111 0.504543 -0.00673485 0.155234 -0.987569 0.0247171 
-0.71533 0.0904955 -0.295152 0.733233 0.0862306 0.674487 
-0.341139 0.134652 0.705354 -0.225084 0.0865432 0.970488 
-0.234182 -0.383743 0.307006 -0.229751 0.789729 -0.568808 
-0.119138 0.450902 -0.115786 -0.532193 -0.840147 0.104514 
0.161334 -0.252514 -0.336395 -0.0748285 0.283241 0.956125 
-0.572307 0.203095 0.357445 -0.194147 0.233147 0.952864 
0.312101 0.037852 0.32501 0.137694 -0.49811 -0.856111 
-0.35676 -0.173928 0.974931 -0.535394 0.134652 -0.8338 
0.570848 -0.378763 0.238936 0.310262 -0.805919 0.504214 
0.307075 -0.293071 0.331104 -0.147091 -0.331011 0.932092 
-0.535836 0.282715 0.793953 -0.947743 0.20514 0.244338 
0.176919 -0.211298 0.337368 0.0469825 -0.186529 0.981325 
-0.604129 0.0693801 0.37409 -0.337974 0.0780318 0.937915 
0.398301 -0.170438 0.373054 0.200787 0.0908995 -0.975409 
-0.147139 0.46914 0.0902357 -0.458044 -0.880563 -0.121674 
0.765704 -0.281975 -0.00411836 0.858966 -0.504918 -0.0850629 
-0.78198 -0.105628 0.126404 -0.941812 0.0451566 0.333094 
0.0883575 -0.389805 0.207496 0.133773 0.881955 -0.45195 
0.657891 0.11804 0.170492 -0.422607 -0.857547 -0.293286 
-0.807138 -0.137598 -0.00233422 0.997159 0.0538702 0.0526488 
0.809015 -0.155522 0.0620205 -0.994787 0.100247 -0.0187001 
0.643617 -0.217162 0.342261 0.417314 -0.355108 0.836509 
-0.417792 0.403133 0.774261 -0.129865 0.821738 0.554871 
0.357683 -0.467301 -0.0218622 -0.0857067 0.994107 0.0663769 
-0.537025 0.296651 -0.754326 -0.985796 0.128436 -0.108214 
-0.529603 -0.255844 -0.878124 0.933745 0.223488 0.279594 
-0.134787 -0.0727144 0.43008 -0.118963 -0.0854649 -0.989214 
-0.55169 0.174227 0.367609 -0.145502 0.216636 0.965349 
-0.196054 -0.0548258 -0.432096 -0.0460161 -0.075041 0.996118 
-0.508089 0.359306 0.77326 -0.637103 0.586899 0.49965 
-0.414524 0.462138 0.604771 0.0332881 -0.992484 -0.117757 
-0.263267 0.215042 0.821029 0.944284 0.0846042 0.318071 
-0.416686 -0.372492 -0.845894 -0.00550582 0.990406 -0.138075 
0.6011 0.104436 0.251092 0.240406 0.835625 0.493899 
-0.790183 -0.288578 0.0420683 0.982966 0.179836 -0.0379036 
-0.642382 -0.278996 0.294001 0.571122 0.246902 -0.782853 
0.606976 -0.323277 0.289283 0.3549 -0.663251 0.658897 
0.572553 -0.320225 0.307913 0.279202 -0.638451 0.717235 
-0.487598 0.422973 0.137185 0.486149 -0.840818 -0.238084 
-0.755887 -0.286947 -0.135035 -0.898063 -0.231083 -0.374278 
-0.293571 0.356426 -0.446938 0.94619 0.186799 0.264255 
0.758745 -0.261594 -0.104516 0.840844 -0.484496 -0.241341 
-0.139665 -0.176742 0.420108 0.17298 -0.270692 0.946997 
0.664015 -0.0586199 -0.334462 0.509149 0.0666082 -0.858097 
-0.0776834 0.0814449 -0.35 -0.231688 -0.707508 0.667648 
0.215547 0.159308 0.0273443 0.373515 0.920521 0.114578 
-0.647447 0.119927 0.34895 0.484119 -0.0874896 -0.870617 
-0.536308 0.0345676 0.808913 -0.95757 -0.0289625 -0.286743 
-0.652503 -0.0814003 0.327978 0.637333 0.129808 -0.759577 
-0.268235 0.01109 0.423463 0.0278895 0.268826 0.962785 
-0.430531 0.455241 -0.121587 -0.41078 0.902333 -0.130594 
-0.688325 -0.167469 0.280087 0.711851 0.116685 -0.69257 
-0.44534 -0.502998 -0.0119907 -0.0939234 0.995049 0.0324862 
-0.289418 -0.0527593 0.923721 -0.819237 -0.0222497 -0.573023 
-0.26914 -0.164176 -0.861239 -0.991117 0.0664783 -0.115182 
0.432638 -0.0673065 0.378734 0.149448 -0.126846 -0.9806 
-0.355536 0.24693 -0.465156 0.551387 -0.70641 -0.4438 
-0.320952 0.15846 -0.919457 -0.594974 -0.216608 0.774007 
-0.272456 -0.177307 -0.892433 -0.945777 0.0301011 0.32342 
-0.518939 -0.0599551 -0.778727 0.846407 0.0411222 -0.530946 
-0.262831 0.368227 -0.722386 -0.886533 -0.428118 0.175425 
-0.351515 0.0981535 0.954407 -0.435912 -0.216025 -0.873678 
-0.232623 0.417247 -0.25154 -0.0331489 -0.701471 0.711927 
0.219564 -0.136938 -0.345449 0.0723679 0.0106974 -0.997321 
0.448152 -0.450978 -0.0722657 -0.170369 0.971838 0.162801 
0.215461 -0.26916 -0.330238 0.0179097 0.26878 0.963035 
-0.275757 0.371313 -0.755586 -0.73516 -0.540885 0.408636 
-0.631008 0.339123 0.147585 0.482886 -0.85305 -0.197807 
-0.499626 0.432216 -0.507636 0.597518 -0.776289 -0.200867 
0.533757 0.176121 -0.076886 0.0633208 0.995502 -0.0704763 
-0.362913 0.0102679 0.706818 -0.14265 0.029537 0.989332 
-0.233597 -0.0920056 -0.43397 -0.0131851 0.0421094 0.999026 
0.258939 -0.138911 -0.344649 -0.0543983 0.0306099 -0.99805 
-0.718923 -0.206663 -0.236649 0.833484 0.125451 0.538113 
-0.207928 0.00781121 -0.421073 -0.0910842 -0.291192 0.952319 
-0.339854 -0.328874 0.380566 0.0206521 -0.549429 0.835285 
0.749744 0.0658356 -0.132185 -0.760797 -0.618214 0.197485 
-0.563793 -0.348708 0.310101 -0.377759 -0.459395 0.803899 
0.364176 -0.341471 -0.29757 -0.0585967 0.595812 0.800984 
-0.350679 0.479037 -0.137532 0.20705 -0.954501 0.21461 
-0.384846 0.301766 -0.881931 0.112245 0.557517 -0.822542 
-0.450507 -0.356475 -0.879371 0.407733 0.806881 0.427431 
-0.778601 -0.140675 0.138644 0.929345 -0.023483 -0.368464 
-0.715235 -0.307633 0.216103 -0.74571 -0.239703 0.621659 
-0.476991 0.206394 0.393145 0.577968 0.33185 -0.745539 
-0.393798 0.464212 -0.544252 -0.0462083 -0.995058 -0.087891 
-0.314248 0.321811 -0.374767 -0.849478 -0.32381 -0.416574 
0.242176 -0.105404 -0.342571 0.0067299 0.0615061 -0.998084 
0.0818266 -0.431449 0.017097 -0.250727 -0.966855 0.0482447 
-0.545071 0.309408 -0.304271 -0.352861 0.839535 -0.413122 
-0.465156 -0.0182039 0.978292 0.396213 -0.124166 -0.909724 
0.468687 -0.347917 -0.276081 -0.161309 0.697185 0.698507 
-0.507537 0.382949 -0.205754 -0.502588 0.735695 -0.454047 
-0.194494 0.388188 0.269292 -0.0820468 -0.616334 -0.783199 
0.797623 -0.21061 0.0781401 0.96075 -0.27109 0.0589098 
0.153454 0.191095 0.0262084 -0.481268 -0.85955 -0.171918 
-0.635872 0.0530455 0.358848 0.523789 0.0304182 -0.851305 
-0.261497 0.273897 0.796602 -0.917776 -0.154177 -0.365945 
-0.533333 0.376395 0.498822 0.979659 -0.183791 0.0805598 
0.473168 -0.260115 -0.337479 -0.0867311 0.423564 0.901705 
-0.579696 -0.504015 0.0307589 0.101629 0.994817 0.00317097 
-0.421982 -0.14344 0.422729 -0.234058 -0.0686594 0.969795 
-0.67176 -0.16659 -0.305157 0.719997 0.0991637 0.686856 
-0.462825 0.0146298 -0.976797 0.35215 -0.143148 0.924932 
-0.178973 0.331543 -0.305238 0.155901 0.420155 -0.89396 
0.602644 0.158383 0.0838048 0.267662 0.952501 0.145256 
0.716881 0.101716 0.0791685 -0.598676 -0.792351 -0.117333 
0.648475 0.140558 -0.137901 -0.407926 -0.894114 0.184816 
-0.564114 0.391925 0.0816374 -0.481257 0.86638 0.133334 
-0.527672 0.346407 -0.602614 0.809145 0.577021 0.111041 
0.109135 -0.208547 -0.355882 0.18115 -0.279062 -0.943032 
-0.644516 -0.407227 0.221167 0.472236 0.59151 -0.653536 
-0.29903 0.0318955 -0.927148 -0.748599 -0.091132 0.65673 
-0.347799 0.204427 0.918855 0.369485 0.354967 0.858766 
-0.777043 -0.315586 -0.0437643 -0.947458 -0.257001 -0.190457 
0.173465 0.0998711 0.250151 -0.0883245 -0.903063 -0.420329 
-0.30175 -0.344389 -0.337888 0.212058 -0.647737 -0.731757 
0.0202473 -0.0778594 -0.402861 -0.235925 0.0315164 0.97126 
-0.492139 0.383694 -0.383176 -0.68846 0.550612 0.472069 
-0.510855 -0.394629 0.297537 -0.23406 -0.654792 0.718654 
0.345502 0.108606 0.247907 -0.157783 0.884903 0.438236 
-0.615883 0.331731 -0.196673 0.415747 -0.848458 0.327528 
0.0130279 -0.418728 -0.0138454 -0.136637 -0.990577 0.00937732 
-0.342395 -0.474604 0.126278 0.164588 -0.97397 0.155864 
-0.475687 -0.498415 -0.0761572 0.0535274 -0.990548 -0.126295 
0.615404 -0.3454 -0.206483 0.445555 -0.752512 -0.484981 
-0.542429 -0.0356721 -0.88049 0.988751 -0.0094192 0.149275 
-0.731052 0.0350433 -0.266775 -0.804774 -0.133617 -0.578347 
0.194991 -0.448555 0.104659 0.202637 0.957259 -0.20638 
-0.537978 -0.196142 0.837753 -0.979845 -0.0712758 -0.186608 
0.592069 0.0763456 -0.305115 0.229495 0.67174 -0.704342 
-0.193138 0.121762 0.359408 -0.23323 -0.470024 -0.851282 
-0.454848 0.0253773 -0.420115 0.186035 -0.0588762 0.980778 
-0.485448 0.184705 -0.71681 -0.419859 -0.248464 0.872917 
-0.756022 -0.386008 -0.0152234 0.891364 0.424808 0.158141 
0.667481 0.00499606 0.319387 -0.479559 -0.453396 -0.751302 
0.0905873 -0.407849 0.166102 -0.17891 -0.930692 0.319066 
-0.218805 0.499587 -0.0542869 -0.197739 -0.975595 0.0954665 
-0.656634 -0.122473 0.317683 -0.632746 -0.144278 0.7608 
0.692717 -0.202603 0.316549 -0.614045 0.3015 -0.729415 
-0.523474 0.317749 -0.389426 -0.966121 0.134314 0.220386 
0.294646 -0.384188 -0.264387 -0.0147515 0.733921 0.679074 
-0.523886 -0.233007 -0.808619 0.846861 0.149418 -0.510393 
0.0565766 -0.391429 0.196009 -0.0854182 -0.918714 0.385575 
-0.701387 -0.194389 0.261193 -0.737312 -0.111647 0.666263 
0.666851 -0.189327 -0.306747 -0.545208 0.355605 0.75914 
-0.487488 -0.0801851 -0.415773 0.229989 0.00576618 0.973176 
-0.464777 0.358498 -0.813605 0.335417 -0.690972 0.640354 
-0.528721 0.314684 -0.486422 0.857925 0.484758 0.170222 
-0.719457 0.269398 -0.145298 0.734192 -0.6756 0.0672839 
0.538413 -0.338487 0.302199 -0.199051 0.669213 -0.715914 
-0.798357 -0.142536 -0.0606952 -0.970923 -0.0475015 -0.234632 
-0.331458 -0.160037 0.959915 -0.614892 0.130249 -0.777781 
-0.449453 -0.0238431 0.719038 0.396418 0.0247856 0.917736 
-0.141544 0.256156 0.304242 -0.46103 -0.0263566 -0.886993 
0.382566 -0.45903 -0.0765853 0.0950563 -0.985126 -0.143148 
-0.295873 -0.436323 0.238337 -0.186925 0.913481 -0.361401 
-0.498884 -0.124139 0.756898 -0.697427 -0.0767717 -0.712532 
-0.805961 -0.0709555 -0.0270643 -0.984615 -0.00321012 -0.17471 
-0.601062 -0.399879 -0.266873 0.503746 0.632164 0.588735 
-0.742459 0.243501 -0.117742 -0.805252 0.592337 -0.0265698 
-0.250637 -0.45911 0.10989 -0.234335 0.96339 -0.130254 
-0.152769 0.475988 0.0563418 0.468598 0.880276 0.0743656 
0.341609 0.0592901 -0.319804 0.191925 -0.606168 0.771833 
-0.535964 0.255914 -0.800727 0.961047 -0.148549 0.23307 
-0.4349 0.222609 -0.694649 -0.0634409 -0.224798 0.972338 
-0.262239 -0.0698049 -0.85264 -0.994902 0.0449294 0.0902875 
0.33437 -0.460434 0.115277 0.00074909 0.982223 -0.187718 
-0.106839 -0.347144 -0.283259 -0.103803 0.781533 0.615168 
-0.260551 0.132031 -0.787602 0.97904 -0.0552996 0.196018 
-0.336814 0.447032 0.516416 -0.446822 -0.877851 0.172416 
-0.51971 -0.212488 0.916234 0.840169 0.125831 -0.527525 
-0.744864 -0.016006 0.230525 0.883284 0.135883 -0.448714 
0.683677 0.127514 0.0531176 -0.513398 -0.854507 -0.0789925 
-0.361817 0.0144535 -0.97556 0.381528 0.163641 -0.909757 
-0.420834 -0.264664 0.967634 0.0479776 0.4442 -0.894642 
-0.278257 -0.0890849 -0.907707 -0.868604 0.0190555 0.49514 
-0.720393 0.273109 0.117237 -0.733746 0.676635 0.0614982 
0.282626 -0.194369 -0.344895 0.0860934 0.077666 0.993255 
0.543758 -0.416079 -0.121836 0.304253 -0.912737 -0.272656 
0.186845 -0.392648 0.235697 -0.193314 -0.793471 0.57709 
-0.369411 -0.318711 0.793063 0.385073 -0.56801 -0.727381 
-0.791503 0.147532 -0.110767 -0.963205 0.258255 -0.0744381 
-0.506053 0.434054 0.567293 0.641732 -0.765815 0.0413201 
0.0220928 0.0899441 0.301716 0.122924 0.866269 0.484218 
-0.526133 0.399007 -0.647949 -0.899032 0.407085 -0.161317 
-0.236809 -0.257163 0.408342 0.13553 -0.40973 0.902083 
0.295185 0.128657 -0.18914 0.154493 -0.949072 0.274582 
0.796745 -0.168497 0.157274 -0.964754 0.188994 -0.183112 
-0.183033 0.0325075 0.406523 0.13229 0.418 0.898763 
-0.268056 0.157645 0.850794 -0.919465 -0.100939 -0.379994 
-0.80817 -0.0276011 0.0230869 -0.990703 0.00774894 0.135819 
-0.391204 -0.105082 -0.709271 -0.105842 0.0324856 -0.993852 
-0.593449 -0.278888 -0.346821 -0.554129 -0.237275 -0.797898 
0.533052 0.1309 0.225104 0.0961183 0.905031 0.414343 
-0.691164 0.00416071 0.306526 -0.712373 -0.132028 0.68927 
-0.78239 -0.321858 0.013058 -0.96685 -0.250465 -0.0496756 
-0.646168 -0.409573 -0.20704 0.607936 0.625308 0.489289 
-0.441068 -0.200552 0.41034 -0.279116 -0.149022 0.948624 
-0.555736 0.285474 -0.331917 0.436177 -0.647591 0.6248 
-0.644068 0.344734 -0.0503905 -0.596303 0.800495 -0.0602518 
-0.471719 -0.226621 0.962977 0.561366 0.257055 -0.786633 
-0.210005 0.466239 -0.178978 0.152895 0.881782 -0.446187 
0.325966 -0.453286 0.145901 0.0207763 0.966886 -0.254361 
-0.560186 0.3836 0.129537 -0.458347 0.857477 0.233776 
-0.0282854 0.360785 -0.0161185 0.750555 0.659701 0.0382318 
-0.442845 0.1548 -0.706876 -0.221248 -0.102704 0.969794 
-0.473949 0.0926385 -0.406843 0.261501 -0.193614 0.945585 
-0.490141 0.253152 -0.884325 -0.529581 0.40998 -0.742603 
0.470981 -0.0237731 0.373425 0.0605235 -0.301154 -0.951653 
-0.520055 -0.360235 -0.345579 -0.270215 -0.535215 -0.80033 
0.810656 -0.12331 0.0323271 -0.999841 0.00515687 0.0170862 
-0.372993 -0.421523 -0.272772 -0.246271 0.820736 0.515503 
-0.700882 0.295762 0.0608816 -0.710342 0.703786 0.0100156 
0.375087 0.0287131 -0.343865 0.145459 -0.373705 0.916071 
0.0944313 -0.022758 -0.376273 0.273933 0.182455 -0.944283 
-0.291781 0.246176 -0.861938 -0.71045 -0.284394 0.643724 
-0.45565 -0.173417 -0.990429 -0.517396 -0.0357355 -0.855 
0.123834 -0.442416 0.0260013 -0.274006 -0.959371 0.0672843 
-0.199487 0.395935 -0.267771 -0.0746366 -0.631748 0.771572 
0.0966937 -0.274948 -0.331754 0.0579656 -0.450662 -0.890811 
0.624147 -0.0745687 -0.354624 0.350062 0.00503893 -0.936713 
0.225241 0.145484 0.0922508 0.165632 0.971442 0.169903 
0.455494 -0.0993954 0.38507 -0.125237 0.0457258 0.991073 
-0.528652 0.307278 -0.430847 0.940713 0.326689 -0.0912846 
0.736255 0.00931439 0.247383 -0.744242 -0.456197 -0.487841 
-0.523438 -0.287998 -0.862608 0.914573 0.384059 0.12671 
-0.390414 0.054204 0.975344 -0.171636 -0.16639 -0.971007 
0.272315 -0.225294 -0.340648 -0.0609327 -0.135938 -0.988842 
-0.56078 -0.49192 0.124003 0.0630237 0.959834 -0.2734 
0.656414 -0.0434296 0.347955 0.452108 0.268862 0.850477 
-0.208698 0.44762 0.206924 0.125953 0.821116 0.556691 
0.750166 -0.0910816 0.278386 0.805015 0.0682484 0.589315 
-0.307503 -0.330954 0.37711 0.0996108 -0.565031 0.819034 
-0.534999 -0.240438 0.849934 -0.991689 -0.124932 -0.0307297 
-0.513302 -0.305997 0.832512 -0.808525 -0.514021 -0.286478 
-0.260755 0.0503498 0.835464 -0.994394 -0.023413 -0.103109 
-0.094045 0.247439 0.270256 -0.684929 0.0779858 -0.724425 
0.0354237 0.0198065 -0.375385 -0.1994 -0.4886 0.849417 
0.167365 -0.319176 0.298744 -0.094264 -0.504086 0.858494 
-0.727082 0.214236 0.248492 0.77805 -0.454443 -0.433728 
-0.403842 0.427486 0.73433 0.093881 -0.900513 -0.424574 
-0.533937 0.390386 0.625715 -0.933474 0.351616 0.0706585 
-0.766086 -0.370509 0.0521905 -0.93049 -0.358503 0.0752602 
-0.32175 -0.303788 -0.904705 0.604881 -0.544572 -0.580999 
-0.164213 -0.393537 -0.223397 0.180143 -0.883391 -0.432631 
-0.422267 0.282417 0.6702 0.0236102 0.494773 0.868701 
-0.25014 0.048781 0.408736 -0.105414 -0.390988 -0.914339 
-0.109864 -0.416741 0.146737 -0.216142 0.959294 -0.181766 
-0.1428 -0.401482 0.227501 -0.2403 0.898538 -0.367269 
0.11358 0.0717131 -0.311142 -0.0927662 -0.821461 0.562669 
-0.318264 0.0461178 -0.721919 0.461185 -0.0421407 0.886303 
-0.456846 -0.271661 -0.750684 -0.43135 -0.432402 0.791812 
-0.328663 0.0643494 0.948554 -0.5766 -0.161341 -0.800938 
-0.784708 -0.299961 0.07538 -0.970384 -0.181213 0.159737 
0.180935 -0.417962 -0.201891 0.15714 0.891402 0.4251 
-0.319718 0.440601 0.593965 0.527299 0.849671 0.00384603 
-0.33867 -0.198788 0.752815 0.704965 -0.261801 -0.659155 
-0.491776 0.430418 -0.0880431 -0.466525 0.877661 -0.109847 
0.805352 -0.176 -0.00962006 0.982485 -0.172624 -0.0701764 
0.529251 -0.0914664 0.387751 0.0436079 0.0668543 0.996809 
0.215665 -0.459025 0.0702312 -0.170486 -0.972575 0.158216 
0.69532 -0.0601709 -0.312649 -0.624751 -0.075459 0.777169 
0.0180695 -0.20247 0.372115 -0.240185 0.362914 -0.900336 
-0.0373835 0.378478 0.126426 -0.755683 -0.653579 -0.0421611 
0.275129 -0.00960708 -0.333951 -0.0826955 0.118812 -0.989467 
0.0190698 -0.0228461 -0.397077 -0.214218 -0.222969 0.950997 
-0.689337 0.0431575 0.314973 0.700367 0.100915 -0.706614 
-0.496776 -0.0259047 -0.749986 0.674132 0.0395943 -0.737549 
-0.457973 -0.358171 -0.826813 -0.393176 -0.85793 0.330709 
-0.377071 -0.359746 0.843151 -0.338898 0.917467 0.208331 
0.784025 -0.0379373 -0.16955 0.945915 0.140189 -0.29256 
-0.516691 -0.467429 -0.209286 -0.131044 -0.921342 -0.365999 
-0.42618 0.425574 0.220517 -0.406844 0.805666 0.430558 
-0.203975 -0.384953 0.291929 0.242523 -0.807667 0.537454 
0.563879 0.174048 -0.0581444 0.131327 0.990199 -0.0475253 
0.441263 0.150444 0.170107 -0.0880136 0.959674 0.266983 
-0.551852 -0.338314 -0.346861 -0.366403 -0.448327 -0.815323 
-0.181968 0.279844 0.317877 0.267041 0.158956 0.950485 
-0.674445 -0.399137 -0.182117 -0.67779 -0.566306 -0.468933 
-0.443805 0.337849 -0.844511 -0.243503 0.667569 -0.703603 
-0.342237 -0.4856 -0.0242412 0.212305 -0.975607 -0.0558287 
-0.294284 0.416926 -0.577451 0.813885 0.572065 0.101646 
-0.255642 0.240482 0.779562 0.996626 -0.0257981 0.077921 
-0.433271 -0.318147 -0.932602 0.204973 0.614239 0.762034 
0.288698 -0.456188 0.128934 -0.0790797 -0.970428 0.228071 
-0.724271 0.268224 -0.0270499 0.78791 -0.615727 -0.00883003 
-0.704165 -0.0233756 0.287019 0.74664 0.136461 -0.651081 
-0.537135 0.209037 -0.827104 -0.964075 0.113635 -0.240096 
-0.224555 -0.456789 0.0737814 -0.255879 0.963371 -0.0802701 
-0.438277 -0.480682 -0.163831 0.129249 -0.963738 -0.233462 
-0.394818 -0.301072 -0.947739 -0.125248 0.548433 0.826761 
0.369653 0.139202 -0.199467 -0.167393 0.944113 -0.283953 
-0.537077 0.0804933 0.806139 -0.950472 -0.0246744 -0.30983 
-0.450694 0.413405 -0.746155 0.26107 -0.843356 0.469673 
-0.663769 0.0583539 -0.3388 -0.60422 -0.0569089 -0.794783 
-0.529166 0.386771 -0.479662 0.882802 -0.414288 -0.221417 
0.459715 -0.440582 0.16101 0.144914 -0.95445 0.260815 
-0.780907 0.0278928 -0.141097 -0.964357 -0.165612 -0.206369 
0.334885 0.114467 -0.245476 -0.185721 0.887519 -0.421684 
-0.513787 0.290077 -0.681838 -0.534001 -0.504679 0.678337 
-0.590088 -0.346544 -0.319745 -0.500028 -0.454107 -0.7374 
-0.343392 0.236502 0.430194 -0.565453 0.735695 -0.372847 
-0.27414 -0.442209 0.209034 0.210589 -0.93203 0.294912 
-0.4638 -0.335008 -0.90076 -0.46669 -0.679693 -0.565878 
-0.0966142 -0.191774 -0.399695 -0.118337 0.37652 0.918819 
-0.619761 0.340716 -0.163835 0.469475 -0.844619 0.257317 
0.314068 -0.132838 0.354683 0.24349 -0.0157362 -0.969776 
-0.494397 0.361471 -0.252497 -0.468296 0.736329 -0.488384 
0.434411 0.0389221 0.340385 -0.0606815 0.529291 0.846267 
0.488302 -0.16011 -0.369038 -0.00614418 0.199556 0.979867 
0.802383 -0.132072 0.154393 -0.97925 0.0839665 -0.184441 
-0.0362283 0.106603 0.295684 -0.25467 -0.826737 -0.501647 
-0.359355 0.386868 0.283213 -0.261786 -0.643951 -0.718884 
0.663093 -0.376779 0.133718 -0.532548 0.823982 -0.193511 
-0.424988 0.461551 -0.514102 0.0883613 -0.98805 -0.12629 
-0.140031 0.0757134 -0.375343 -0.203444 -0.572143 0.794521 
-0.424665 -0.000210907 -0.425463 0.110937 -0.0362147 0.993167 
-0.0559584 -0.396161 0.190522 0.134876 -0.946484 0.293217 
0.582657 -0.406191 -0.105882 0.374829 -0.894038 -0.245355 
-0.257514 0.234942 -0.344443 -0.21294 -0.112625 0.970552 
0.0207445 -0.38386 0.208685 -0.00173394 -0.911919 0.410366 
-0.3223 -0.407926 0.301068 0.130723 -0.813958 0.566024 
-0.408168 -0.149238 -0.426263 -0.0913414 -0.0751371 -0.992981 
-0.413788 0.160122 -0.951216 -0.0111309 -0.361084 0.932467 
-0.119007 -0.403848 0.204725 0.222651 -0.925767 0.305585 
-0.309175 0.304251 0.645269 -0.228006 0.740702 0.631961 
-0.361925 -0.256412 -0.760392 0.608268 -0.393128 0.689536 
-0.350365 -0.241219 0.758962 0.670535 -0.326232 -0.6663 
0.447979 -0.294627 -0.321673 -0.0935864 0.511562 0.854135 
-0.407334 0.461934 -0.613388 -0.0369477 0.992642 -0.115314 
-0.396259 -0.10184 -0.996994 -0.179716 -0.0206394 0.983502 
-0.535643 0.190605 -0.368706 -0.256178 0.0856754 -0.962825 
0.785582 -0.246893 0.0719626 0.918738 -0.39117 0.0539079 
0.391224 -0.455836 0.128116 -0.0633378 0.978494 -0.196309 
-0.148731 -0.438796 -0.0156881 0.263375 -0.964257 -0.0290138 
-0.356105 0.385723 0.367046 -0.589057 -0.441427 0.676871 
-0.601148 0.301408 -0.278265 -0.323265 0.835454 -0.444428 
0.624347 -0.0331702 -0.35001 -0.347525 -0.199329 0.916239 
-0.582078 0.260588 -0.338216 0.293957 -0.524988 0.798734 
-0.105429 0.442086 0.0340558 -0.672753 -0.739827 0.00769091 
-0.461573 -0.177498 -0.416846 -0.163157 -0.0900681 -0.98248 
-0.72919 0.248249 -0.193138 -0.763882 0.609357 -0.212529 
0.430728 -0.0161476 -0.364282 0.0927604 -0.19754 0.975896 
-0.722148 0.243112 0.21963 -0.750652 0.588278 0.300749 
-0.449438 -0.373595 0.334895 -0.184515 -0.614305 0.767192 
-0.343761 0.426554 0.730645 0.218142 0.882927 0.415757 
0.65707 -0.131747 0.357018 0.453078 -0.0891446 0.887003 
0.573127 -0.142434 -0.363399 0.215981 -0.19324 -0.957084 
-0.524333 -0.502063 0.0794689 -0.0348324 0.98954 -0.139992 
-0.757141 -0.0619284 -0.190232 -0.928292 -0.0664224 -0.365872 
0.693755 -0.117015 0.334748 0.587931 -0.0325873 0.808254 
0.519592 -0.44238 0.086368 -0.229035 0.969448 -0.0878276 
0.683494 0.114422 0.133892 -0.501824 -0.838237 -0.213381 
-0.368179 -0.0878812 -0.988397 0.394104 0.013673 -0.918964 
-0.542296 -0.498109 -0.0708397 0.0815728 0.985646 0.147807 
0.0926108 0.167998 -0.139279 0.306083 0.795303 -0.523266 
0.426353 -0.456859 0.105599 0.112469 -0.983895 0.13893 
0.397819 -0.110437 -0.365863 0.161609 0.0344639 0.986253 
0.804804 -0.0993362 0.144842 0.986768 0.0123953 0.161663 
-0.439851 0.455801 0.62779 -0.145809 0.973338 0.177067 
-0.46344 0.312462 0.639063 0.0792223 -0.863272 -0.498483 
0.293867 0.150183 0.00651979 -0.13517 0.99072 0.0142362 
-0.395914 -0.107783 0.430136 0.164729 0.00457764 -0.986328 
0.707302 0.115241 -0.0045857 0.568017 0.822911 0.0131749 
-0.554349 0.326776 -0.262151 -0.328614 0.835721 -0.439981 
-0.136069 -0.417796 -0.145029 0.182857 -0.95191 -0.245827 
-0.479464 -0.380359 0.320852 0.220138 0.627386 -0.746945 
-0.606369 0.20644 0.348766 -0.249757 0.262984 0.931913 
0.58353 -0.381307 -0.172533 0.376133 -0.840787 -0.38936 
-0.54246 0.0595034 0.836893 0.996842 0.00884876 0.0789149 
-0.480339 0.283133 0.505327 0.385978 0.73192 -0.561529 
-0.39223 -0.217376 -0.416663 -0.000546866 0.207173 0.978304 
0.745722 -0.0161778 -0.244596 0.821675 0.237763 -0.517995 
-0.306191 0.287258 -0.366249 0.941858 0.173104 -0.287989 
-0.593392 0.372522 -0.0956305 -0.484152 0.862819 -0.145401 
-0.366643 0.414217 0.257934 0.0616002 0.7137 0.697737 
0.427251 -0.411261 0.237989 -0.0810513 0.856529 -0.509695 
-0.313912 -0.302779 0.395155 -0.060397 0.473565 -0.878686 
-0.254361 -0.466166 0.0457112 0.2371 -0.970534 0.0429765 
0.332146 0.150553 0.0904896 -0.172795 0.97727 0.12282 
-0.0397571 0.378497 -0.0684597 -0.748596 -0.657611 -0.0845717 
-0.53615 -0.0405857 -0.814246 0.950084 0.0276706 -0.310763 
-0.350118 0.219071 -0.41312 0.704811 -0.529381 -0.472226 
-0.460572 -0.239213 -0.739097 0.533376 0.2825 -0.797311 
-0.554828 -0.111584 -0.393288 -0.363847 -0.0443033 -0.930405 
-0.358122 0.269284 -0.499749 -0.39784 0.709987 0.58107 
0.0724604 -0.42776 -0.0755831 0.226924 0.970768 0.0782033 
-0.659523 -0.196184 0.301513 0.634509 0.15095 -0.758032 
0.401458 -0.277188 0.349341 -0.1021 -0.349459 0.931372 
-0.501738 0.309947 0.648714 -0.27679 -0.799532 -0.533045 
-0.0936864 -0.102609 0.423673 0.17488 -0.0757965 0.981668 
-0.332489 -0.329912 0.846329 0.685931 -0.676186 -0.268833 
-0.495444 0.107237 0.736643 -0.621481 -0.121581 -0.773937 
-0.0167264 -0.0016079 -0.397719 0.161316 0.356939 -0.920094 
-0.384101 0.24108 -0.480631 -0.305891 0.738933 0.60034 
-0.272666 0.307484 0.802723 -0.805536 -0.30722 -0.506682 
-0.794765 0.12304 0.0440908 0.974528 -0.223071 -0.0231098 
-0.781583 -0.27537 0.105535 -0.951185 -0.139434 0.275328 
-0.298377 0.500875 0.0647255 -0.120556 0.98482 0.124883 
0.742139 -0.191064 -0.224616 0.804306 -0.348905 -0.480996 
0.305239 0.055716 -0.313669 0.170709 -0.581358 0.795539 
-0.269558 0.230672 -0.834978 -0.880571 -0.168456 0.442965 
0.804895 -0.0286057 0.0693283 -0.988043 -0.147376 -0.045281 
-0.174286 -0.0865934 -0.431407 0.0523438 -0.0308632 -0.998152 
-0.475396 -0.342993 0.881497 0.51176 0.757734 -0.404896 
-0.157669 -0.414468 -0.170897 -0.193347 0.929382 0.31443 
-0.553622 -0.490717 -0.10583 -0.137724 -0.970843 -0.196205 
-0.375925 -0.0277573 0.705966 -0.0838133 0.0248754 0.996171 
-0.00963173 -0.0227364 0.39976 0.211191 0.235899 0.948552 
0.524782 -0.384668 -0.208473 0.276635 -0.831261 -0.48216 
-0.799201 -0.047031 -0.0561997 -0.96121 0.0283772 -0.274354 
-0.215162 0.10209 0.375509 -0.177586 -0.480561 -0.858792 
-0.478183 -0.338311 -0.369897 -0.119027 -0.475641 -0.871549 
0.0295717 -0.260383 0.341581 -0.194308 0.486233 -0.851952 
-0.378276 -0.488582 0.0682333 -0.161631 0.9786 -0.127345 
-0.369958 0.223122 -0.445375 -0.540945 0.689083 0.482227 
0.501982 -0.113407 0.388956 -0.0244919 -0.00468662 0.999689 
-0.395161 -0.104869 0.707973 -0.0491374 0.00460511 0.998781 
-0.747844 0.153872 0.248175 -0.850683 0.120492 0.511683 
-0.0182227 0.129002 0.248019 -0.31003 -0.792387 -0.525361 
-0.4679 0.067622 -0.964813 -0.398361 0.17747 -0.899896 
0.25574 -0.387141 0.26089 0.143734 0.730527 -0.667585 
-0.282789 -0.267007 0.409985 -0.0751325 0.375906 -0.923607 
0.201897 -0.44582 -0.133081 -0.153152 -0.958496 -0.240476 
-0.283245 -0.241317 0.88488 0.937457 -0.281387 0.204928 
-0.25509 0.268437 -0.338371 -0.178774 -0.264267 0.947736 
-0.326542 0.23122 0.689419 0.142259 -0.338034 -0.93032 
0.353178 -0.184942 -0.3536 0.12157 0.12217 0.985036 
-0.506931 0.265472 0.860787 -0.661511 0.394812 0.637594 
0.663828 -0.246984 -0.27393 0.55965 -0.514415 -0.649745 
-0.26536 0.300313 0.689114 0.853864 -0.281769 -0.437633 
0.419581 0.159722 0.117921 0.127508 -0.979257 -0.157473 
0.125859 0.0872066 -0.283037 -0.0841058 -0.889698 0.448735 
0.435762 -0.247599 -0.344398 -0.0046329 -0.347133 -0.937804 
-0.317683 0.439238 -0.573929 0.560505 0.827929 0.0192056 
0.427954 -0.138954 -0.368517 0.118239 0.110311 0.986839 
-0.374488 -0.359713 -0.84461 0.448259 -0.86193 0.236939 
-0.540684 -0.150129 0.85641 -0.999197 -0.0388897 0.00967482 
-0.361215 0.298516 -0.540714 -0.152964 0.814378 0.559812 
-0.378646 -0.252528 -0.969781 -0.432915 0.376256 0.819155 
-0.438208 -0.0308597 -0.424837 0.139832 -0.0116793 0.990106 
0.777861 -0.147204 -0.178054 -0.925959 0.187323 0.327888 
-0.523233 0.0130278 0.923643 -0.850984 0.0787045 0.51926 
0.562265 -0.0602164 -0.369828 0.148699 0.0876219 -0.984993 
0.719719 -0.290453 -0.153487 0.717021 -0.603411 -0.348964 
-0.266813 -0.047343 -0.797206 -0.956094 0.0616636 -0.2865 
-0.157378 -0.335935 0.334228 -0.234297 0.689194 -0.685651 
-0.397099 -0.173219 0.425681 -0.201819 -0.098283 0.974479 
0.621578 -0.397547 -0.0699159 0.428687 -0.880752 -0.201255 
-0.515526 -0.0771902 0.40027 -0.297401 -0.0687754 0.952272 
-0.32777 -0.152466 0.745386 0.688259 -0.241166 -0.684207 
0.547849 0.157352 -0.182038 0.0847602 0.958776 -0.271226 
0.611378 -0.226101 0.35262 -0.308393 0.354022 -0.882928 
-0.317679 0.47682 -0.161404 -0.0985871 0.943505 -0.316352 
-0.444111 0.445738 -0.667646 -0.219116 0.945906 -0.239271 
0.415235 -0.322509 0.328008 0.0320505 0.509113 -0.860103 
-0.171907 0.4868 0.0280377 -0.37613 -0.925809 -0.0374788 
-0.503889 -0.0871038 -0.955501 -0.732382 -0.00527387 -0.680873 
0.74508 0.0782037 0.0764278 -0.677854 -0.726334 -0.113811 
0.58736 -0.333509 -0.244821 0.363177 -0.7198 -0.5916 
0.772629 0.0383383 -0.115209 0.855378 0.480399 -0.193766 
-0.369358 -0.0809637 0.986966 -0.343093 -0.0145189 -0.939189 
-0.533313 0.33885 0.651451 0.930924 0.327878 0.160864 
-0.204118 -0.448654 0.0995032 0.263019 -0.95801 0.114186 
-0.429655 0.2261 0.691605 0.0802277 0.252992 0.964136 
0.0515725 -0.133797 0.381705 -0.29606 0.189449 -0.936193 
0.207845 -0.463801 -0.0202434 -0.178208 -0.982857 -0.0472714 
-0.526799 0.403337 0.51732 0.864165 -0.481512 0.14617 
-0.0316692 -0.381638 0.22054 0.11 -0.904101 0.412917 
-0.210771 -0.438321 -0.130911 -0.226763 0.942169 0.24677 
-0.540319 0.140199 -0.850519 -0.985179 0.102168 -0.137781 
-0.493297 0.103563 0.397635 -0.241828 0.205583 0.948291 
-0.0754546 -0.277591 0.357611 0.21243 -0.560616 0.800364 
-0.342048 0.362897 -0.296835 -0.324317 -0.666577 0.671189 
-0.00738613 0.101787 -0.288463 -0.202197 -0.866328 0.456719 
-0.280006 -0.213413 -0.90305 0.830572 -0.0970939 -0.548382 
0.552386 -0.322195 -0.274692 0.306366 -0.674138 -0.67207 
-0.112078 0.325132 0.276227 -0.509848 -0.265975 -0.818115 
0.0554344 -0.0511985 -0.392378 0.274571 0.0706122 -0.958971 
-0.529188 0.404842 -0.586094 -0.885916 0.462229 -0.038702 
-0.289228 -0.206222 0.430435 -0.0215008 0.22433 -0.974276 
0.80322 -0.179853 0.101478 -0.978601 0.181737 -0.0965024 
0.218724 0.133571 0.156729 0.0458895 0.968491 0.244784 
0.259422 -0.434149 0.187534 0.137756 0.916337 -0.375964 
0.657609 -0.387278 0.0942272 0.515418 -0.850004 0.108802 
-0.474026 0.0191196 0.413763 0.241399 -0.0384601 -0.969664 
-0.122537 -0.0856612 -0.427324 0.0806144 -0.0386447 -0.995996 
-0.0824151 0.0545009 0.37365 0.196196 0.600268 0.775362 
0.00636468 0.316587 0.0620559 -0.860055 -0.509498 -0.0267725 
-0.444939 -0.411993 0.297474 -0.101385 -0.776979 0.621309 
0.588967 -0.271053 -0.301969 -0.343235 0.562499 0.752186 
-0.318974 0.220913 -0.376156 0.644554 -0.125596 -0.754172 
-0.278495 0.337503 0.632759 0.813639 -0.457952 -0.35815 
-0.317163 0.250684 0.395578 -0.790582 0.424309 -0.441523 
-0.776315 0.131529 0.189574 0.950362 -0.0983582 -0.295193 
-0.346208 -0.356316 -0.340225 -0.229711 0.65704 0.718005 
0.271441 -0.348725 -0.295175 -0.0156025 -0.565387 -0.824678 
-0.46212 -0.429389 0.271059 0.0977834 0.822262 -0.560646 
-0.444234 -0.316065 -0.383585 0.0144867 0.422873 0.906073 
-0.394019 -0.352753 -0.815408 0.311956 -0.721436 0.618234 
-0.433211 -0.12958 0.99797 -0.194195 0.0431226 0.980015 
-0.426467 0.240324 -0.916209 -0.101967 0.408846 -0.906889 
0.278161 -0.111472 -0.344674 -0.108923 0.0612926 -0.992159 
0.140225 0.11021 0.236632 -0.0841688 -0.913647 -0.397698 
-0.194705 0.495318 0.00633235 0.294265 0.955675 0.0096612 
-0.649171 0.342521 -0.0119393 -0.6124 0.790203 -0.0233542 
-0.0665103 0.408613 0.090482 -0.703016 -0.710005 0.0407433 
-0.366844 0.390175 -0.357137 0.623319 0.521477 0.582697 
-0.259896 0.0753981 -0.828161 0.997338 -0.00504229 -0.0727382 
-0.666691 0.203036 -0.323435 0.519376 -0.257558 0.814808 
0.0700809 -0.158868 0.370599 0.286117 -0.229719 0.930251 
-0.541842 0.0987558 0.38706 -0.202829 0.211527 0.956094 
0.428155 0.115577 0.256433 -0.0774275 0.879242 0.47004 
-0.451073 0.0538111 0.416141 0.17825 -0.089061 -0.979946 
-0.428538 -0.465963 0.201719 -0.0477537 0.939888 -0.338126 
0.41641 -0.454406 -0.0834587 -0.134673 0.976908 0.165872 
0.260592 -0.318422 -0.31251 0.023463 0.44114 0.897132 
-0.501858 -0.0392955 0.75475 0.712128 0.01672 0.70185 
0.756432 -0.244044 0.203495 -0.834106 0.432207 -0.342732 
-0.155433 0.278701 -0.312752 -0.369154 -0.087413 0.925248 
-0.482949 -0.255088 0.945078 -0.593479 -0.277866 0.755363 
-0.393281 0.10537 -0.966043 -0.15949 -0.235952 0.958587 
-0.7214 0.272992 0.0487482 0.7681 -0.639993 0.0207875 
-0.681128 0.16694 0.320711 -0.612989 0.144775 0.776714 
0.576258 -0.185716 0.375425 0.195603 -0.229729 0.953396 
-0.00437673 0.333747 -0.100766 -0.848293 -0.529501 0.0051767 
-0.46551 -0.130722 -0.728381 0.56562 -0.0102401 -0.824602 
-0.301437 -0.168224 -0.932446 0.655957 -0.0834943 -0.750166 
0.591202 -0.125246 0.381012 0.206229 -0.0421012 0.977598 
0.150967 -0.373802 -0.260047 -0.129288 -0.743472 -0.656151 
-0.524003 0.300557 0.366964 0.953747 -0.299286 -0.0281744 
-0.522366 -0.01053 -0.780558 0.851131 0.0459388 -0.522939 
-0.761702 -0.0189539 -0.189121 0.937617 0.119301 0.32656 
0.443387 0.0362559 -0.347016 -0.0498519 0.442399 -0.895432 
-0.246123 -0.210974 -0.408356 -0.094999 0.371869 0.923412 
0.777951 0.050545 -0.0578604 -0.796969 -0.580185 0.168008 
-0.654687 -0.425889 0.194109 -0.493188 -0.654629 0.57291 
-0.519941 -0.244563 0.803078 0.83021 0.137676 0.540181 
-0.468422 0.430316 -0.151807 0.491563 -0.842567 0.220107 
-0.124812 0.458018 0.0583133 0.593171 0.804585 0.0281268 
0.31845 -0.469458 0.0509008 -0.0124916 0.996241 -0.0857179 
-0.06778 -0.41903 -0.0567093 0.136724 -0.989485 -0.047179 
-0.165113 -0.437781 0.101221 0.268527 -0.956732 0.112058 
-0.542893 -0.0662727 -0.845156 -0.992363 -0.0210065 0.121554 
-0.47172 -0.210096 0.398622 -0.3088 -0.172048 0.935437 
-0.273468 0.0240056 0.888305 -0.918597 -0.0418353 -0.392976 
-0.31608 0.396449 -0.766611 -0.405422 -0.733535 0.54549 
0.01098 -0.340146 -0.282102 0.0216062 0.753452 0.657148 
-0.345475 -0.123181 0.722881 0.512235 -0.176966 -0.840416 
-0.538318 -0.172958 0.379702 0.383148 0.143534 -0.912467 
-0.398176 0.420645 0.246582 0.215977 -0.824528 -0.52298 
0.722651 -0.321089 -0.0814785 -0.713565 0.658899 0.238071 
-0.518873 0.421901 -0.0230508 -0.462313 0.886084 -0.0334923 
-0.137637 -0.38102 0.266464 0.238897 -0.841621 0.484358 
-0.489036 -0.0596713 -0.970339 -0.650948 0.0447751 -0.757801 
0.662986 0.136405 0.0782883 0.449448 0.884694 0.123743 
-0.0688483 0.241227 0.243765 0.724562 -0.113642 0.679776 
-0.444054 -0.499933 0.0471728 -0.103332 0.988922 -0.106561 
-0.253243 -0.331574 0.367241 -0.182465 0.608264 -0.772477 
0.209904 -0.459908 -0.0653046 -0.174241 -0.977598 -0.118076 
-0.446892 -0.167776 0.992087 0.378914 0.142575 -0.914383 
0.686336 0.126769 -0.0898341 0.533702 0.8416 -0.0828915 
-0.51768 0.349335 -0.394566 -0.853694 0.320597 0.410394 
-0.527456 0.0203385 0.40004 -0.23941 0.0243065 0.970614 
-0.432308 0.464004 0.560018 -0.118016 0.992819 -0.0195814 
-0.501084 0.3268 0.590745 -0.286109 -0.958192 0.0031456 
-0.202947 -0.405903 -0.216191 -0.217464 0.885817 0.409923 
-0.797496 0.102254 0.0694303 0.994102 -0.0889388 -0.0620647 
-0.6655 0.101666 -0.338957 -0.570972 0.000212607 -0.82097 
0.44007 -0.44612 -0.104742 0.172249 -0.962032 -0.211718 
0.738983 -0.323136 0.0434602 -0.753477 0.657271 -0.0163517 
-0.172226 -0.383303 0.279912 0.244534 -0.824057 0.511012 
0.500612 0.139209 0.210618 0.0221922 0.930474 0.365685 
-0.596423 0.0491625 -0.377645 0.391957 -0.065174 0.917672 
-0.57057 -0.0648233 0.38095 -0.38246 -0.11388 0.916927 
-0.291206 -0.189806 0.806895 -0.797788 0.254979 0.546369 
-0.0384833 0.35309 -0.194849 0.762254 0.482506 -0.431459 
0.0968008 -0.403427 -0.1964 0.174756 0.895866 0.408515 
-0.741395 0.246652 0.0519707 -0.824287 0.5645 -0.0434797 
0.06842 -0.0284549 0.379572 0.274465 0.135744 0.951968 
-0.520725 -0.0220369 0.777671 0.838357 0.00469059 0.545101 
-0.344648 0.434644 0.450229 0.467422 0.828982 -0.307092 
-0.339588 0.258064 0.463595 -0.549846 0.716053 -0.430044 
0.207035 -0.193991 0.339176 -0.00294717 -0.104916 0.994477 
-0.493154 -0.478845 0.170943 0.016926 -0.945521 0.325122 
0.706534 0.115325 -0.0605359 -0.572844 -0.818514 0.0434075 
-0.23817 -0.306563 -0.35273 -0.176643 0.602975 0.777958 
-0.17184 0.358651 0.285612 0.1616 0.511146 0.844165 
-0.00687856 0.109582 0.2761 0.193 0.874093 0.445771 
0.186485 -0.120374 -0.350379 0.225366 -0.00363374 -0.974267 
0.251432 0.0202655 -0.328151 -0.0221284 -0.283557 0.9587 
-0.246897 0.245989 0.338925 0.296729 0.119562 0.947448 
-0.419258 -0.322463 0.376167 0.186814 0.457889 -0.86916 
0.684271 0.0841244 -0.233381 0.557152 0.693667 -0.456518 
-0.731501 -0.430927 0.0658961 -0.790713 -0.594786 0.144919 
-0.540916 0.150554 -0.812271 -0.996889 0.000501042 0.0788131 
-0.312796 0.29865 0.851745 0.524858 0.460432 0.71591 
-0.447142 -0.20999 -0.989651 -0.456049 -0.240934 -0.85672 
0.805509 -0.0348081 0.0110534 0.999128 0.0366004 -0.0200991 
-0.0903479 0.349194 -0.255679 0.577113 0.374912 -0.725522 
0.0176629 -0.401589 -0.17227 -0.090624 -0.951855 -0.292848 
-0.279499 0.0730922 -0.754988 0.817603 -0.0625788 0.572371 
-0.212133 -0.197853 0.425912 0.118544 -0.259938 0.958321 
-0.207578 0.169314 -0.345203 -0.277945 -0.311808 0.908583 
-0.568938 0.192381 -0.361403 0.164686 -0.143775 0.975811 
-0.585447 -0.38671 -0.292274 0.46997 0.577891 0.667211 
0.23481 -0.0729724 0.336577 0.0323303 0.0644101 0.9974 
-0.261855 0.457535 -0.204835 0.0335718 0.830978 -0.555291 
0.108845 -0.420537 0.136567 -0.219468 -0.9449 0.242895 
-0.105901 -0.296124 -0.33753 0.0961408 -0.655651 -0.748919 
-0.290267 0.220806 -0.358019 -0.385214 -0.137432 0.912536 
-0.518179 0.172053 -0.89276 0.815487 -0.199605 0.543266 
-0.347285 0.449114 -0.500655 0.402137 0.895922 0.188707 
-0.493694 -0.331175 -0.833546 0.70935 0.66886 -0.222373 
-0.542152 0.121816 0.823788 -0.995512 -0.00544108 -0.0944762 
0.520888 -0.157079 -0.368122 -0.0873401 0.20876 0.974059 
0.480826 0.153333 -0.198819 0.0497345 -0.954071 0.295422 
0.263134 0.145779 0.0569684 0.00883514 0.997029 0.0765156 
-0.37887 -0.265766 0.749009 -0.467193 0.456412 0.757244 
-0.417315 0.171842 0.945014 -0.0253239 0.353936 0.934927 
-0.620333 -0.495262 0.00303922 -0.22794 -0.969392 -0.0912318 
-0.492831 0.324012 -0.611808 0.212166 0.971817 -0.10275 
-0.503973 0.393154 -0.41921 0.716725 -0.576931 -0.391734 
0.256012 0.12352 -0.190313 0.0864656 -0.946397 0.311217 
0.49447 0.168157 0.102469 0.0211721 -0.987713 -0.15484 
-0.43294 0.450655 0.137217 0.43081 -0.883383 -0.184491 
-0.273885 -0.123941 -0.808063 0.910738 -0.219917 0.349561 
-0.0523094 0.0407795 0.376202 0.181465 0.582772 0.792116 
0.0284238 -0.396123 0.1779 -0.0538839 -0.944691 0.323506 
0.776635 -0.118264 -0.194197 0.922575 -0.129875 -0.363302 
0.325903 -0.430106 -0.194802 0.0508216 -0.910539 -0.410287 
0.137188 -0.440775 -0.0959068 0.224143 0.963948 0.143404 
0.661755 -0.386902 0.00221615 0.513873 -0.855011 -0.0699336 
0.724521 -0.304632 -0.114973 -0.729156 0.618117 0.293707 
0.111214 -0.279969 0.318813 0.0638629 -0.458556 0.886368 
-0.336404 -0.435334 0.256873 0.132168 -0.897424 0.420905 
0.433383 -0.240057 0.364964 0.103369 0.278469 -0.954866 
-0.273284 0.30054 -0.811022 0.805348 0.281367 -0.521773 
-0.527767 0.342309 0.578388 -0.753204 -0.65778 0.00297476 
0.305978 -0.38452 0.272862 0.0907721 0.713178 -0.695081 
-0.65682 -0.455463 -0.107252 0.491444 0.811095 0.317188 
-0.241265 0.309441 0.31986 -0.0631731 -0.419503 -0.905553 
-0.594397 -0.0588869 -0.377627 0.468158 0.0477338 0.882354 
-0.0628331 -0.380003 0.234461 -0.172921 0.886406 -0.429398 
-0.2154 0.500995 -0.0185199 0.214395 0.976473 -0.0231255 
-0.418934 0.420462 -0.747393 0.145774 -0.873273 0.464913 
0.747216 -0.310292 0.085743 0.784445 -0.611913 0.101042 
0.103853 -0.172869 0.357367 0.256967 -0.219304 0.941208 
-0.372254 0.170222 0.94077 0.242561 0.326396 0.913581 
0.0154017 -0.235925 0.358085 -0.215971 0.431919 -0.875672 
-0.430337 0.309788 0.646755 0.0301735 -0.76469 -0.643691 
-0.266652 0.0960842 0.774056 0.946261 -0.0831698 -0.312527 
0.327114 -0.402322 0.254418 0.0539197 0.805331 -0.590368 
-0.158772 0.453113 0.17077 0.313392 0.878586 0.360377 
-0.317263 -0.0203344 -0.952404 -0.666591 -0.0763903 0.741499 
-0.425542 -0.351497 0.816887 -0.0777179 -0.812285 -0.57806 
-0.34356 0.42347 -0.426706 0.550719 0.715325 0.430139 
0.554977 0.14206 -0.222255 -0.120785 -0.916213 0.382053 
0.410632 -0.266904 -0.336639 -0.00398837 -0.372002 -0.928223 
-0.479892 0.436877 0.660259 -0.397065 0.879317 0.262947 
-0.157394 0.456566 -0.166525 -0.31045 -0.887953 0.339353 
0.363583 0.157655 0.075701 -0.169019 0.979024 0.113778 
-0.244012 0.425438 0.239919 -0.0338834 -0.683421 -0.729238 
-0.357688 0.281737 0.512421 0.303792 -0.734741 0.60652 
-0.00837466 -0.405834 -0.149046 0.0407241 0.977301 0.207907 
0.413295 0.0458877 -0.339331 0.0763111 -0.510315 0.856595 
-0.211273 -0.338871 0.349486 -0.216942 0.646966 -0.731007 
0.462726 -0.317713 -0.303358 0.139868 -0.604379 -0.784323 
0.526105 0.0967844 -0.298005 -0.0658619 -0.742298 0.666825 
0.496603 -0.357403 -0.258454 0.204237 -0.738814 -0.642216 
-0.607631 0.296825 0.279094 0.314403 -0.82299 -0.473115 
-0.349525 -0.0255686 0.973098 0.462708 0.107667 0.879949 
-0.539416 0.139891 0.378032 -0.176093 0.243972 0.953661 
-0.529034 0.405529 -0.551021 -0.85818 0.506911 0.0810462 
0.702032 -0.0206641 0.308228 0.613194 0.355593 0.70537 
-0.49582 -0.15399 -0.959986 0.727121 0.0760687 0.682282 
-0.388334 0.277858 -0.521377 -0.0831585 0.73128 0.676989 
-0.0936184 0.431946 -0.129025 0.585926 0.805019 -0.0929253 
-0.452908 -0.0954747 0.720121 -0.48187 -0.00141092 -0.876242 
-0.337969 -0.189748 -0.751081 0.681066 -0.281553 0.675927 
0.809236 -0.0965406 0.00940159 -0.998155 -0.0460525 0.0395692 
0.273309 -0.0747509 -0.341155 -0.123955 0.0805742 -0.989011 
0.16792 0.183972 -0.0169727 0.496736 0.85955 -0.120115 
-0.311366 -0.445273 -0.186018 -0.234471 0.919649 0.315071 
-0.713882 -0.0658393 -0.269641 -0.809286 -0.120411 -0.574941 
-0.579692 0.142952 0.369301 0.173963 -0.21597 -0.960778 
-0.749428 -0.206586 0.194401 -0.854837 -0.0646381 0.514855 
-0.475528 -0.186243 0.971811 0.614042 0.184758 -0.767344 
0.590957 0.159486 -0.142697 0.218973 0.958143 -0.184427 
-0.126169 0.458446 -0.0824645 0.546711 0.836066 -0.0458315 
-0.0403573 0.320877 -0.217873 -0.755356 -0.179091 0.630368 
-0.0332416 -0.0904165 -0.414519 -0.175626 0.0796971 0.981226 
-0.274531 -0.160075 0.823948 0.900519 -0.174553 -0.398241 
-0.438336 0.108372 -0.411916 -0.157673 0.172471 -0.972313 
-0.627938 -0.482489 -0.0608988 -0.312238 -0.925085 -0.216159 
-0.480282 -0.456224 -0.241366 0.000359096 -0.900216 -0.435443 
-0.409117 0.127398 -0.412053 -0.0536604 -0.154754 0.986495 
-0.167932 0.170771 -0.329588 0.378255 0.271519 -0.884986 
-0.647068 0.315191 -0.196614 0.475208 -0.839003 0.26505 
-0.426228 -0.357905 -0.812526 0.0172764 -0.790368 0.612389 
-0.662838 -0.483263 0.0659454 0.377976 0.916597 -0.130323 
0.355542 0.159141 -0.0653732 0.20712 -0.976529 0.059095 
0.386805 0.16606 -0.0427669 0.173519 -0.984327 0.0314956 
0.694034 -0.315711 0.220484 -0.625715 0.64859 -0.433373 
-0.621208 -0.461709 0.16763 -0.287002 -0.836133 0.467452 
-0.158836 0.4791 -0.0590675 -0.441454 -0.894973 0.0643511 
0.451083 0.0919522 -0.304052 0.0333141 -0.737422 0.67461 
-0.317328 0.0277911 0.945458 0.629167 0.107037 0.769865 
-0.759135 -0.123186 0.184247 -0.902487 -0.015577 0.430436 
-0.30217 -0.0674145 -0.746404 -0.684648 0.177462 -0.70694 
-0.397254 -0.109913 0.995185 -0.203661 -0.053367 -0.977586 
0.374638 0.143833 0.165292 0.14448 -0.962495 -0.229629 
-0.0335253 -0.414391 0.0709834 0.0431422 -0.997058 0.0633559 
0.307229 0.0999586 -0.261713 0.177828 -0.862384 0.473994 
0.522314 0.150477 -0.207761 0.0331442 0.943154 -0.330699 
-0.392409 0.0502151 -0.97761 -0.151021 -0.166078 0.97448 
-0.364972 -0.287101 0.77202 -0.498428 0.480042 0.721893 
-0.445885 0.457526 -0.609374 -0.204916 0.970445 -0.127457 
0.105525 -0.353264 0.262999 -0.0886067 -0.731361 0.67621 
-0.435328 0.310447 0.560457 -0.0110261 0.8568 -0.515531 
0.292872 -0.464366 -0.0779491 0.00115733 0.988343 0.152238 
-0.296782 0.202794 -0.884465 -0.717386 -0.225567 0.659149 
-0.4726 -0.228789 -0.96648 -0.604009 -0.283784 -0.744742 
0.434528 -0.170822 -0.364411 0.0832546 0.180875 0.979976 
-0.260997 0.0148988 0.836869 0.997037 -0.0166983 0.0750897 
-0.806156 -0.134459 0.0343289 0.993097 0.0282704 -0.113838 
-0.326438 0.373211 -0.802304 -0.325802 -0.677067 0.659873 
-0.289601 0.0486186 0.412692 -0.0771581 -0.348241 -0.934224 
-0.117703 -0.430214 0.0267144 0.253872 -0.966877 0.0264321 
0.367248 0.147789 -0.165815 -0.182356 0.961362 -0.206225 
0.770794 0.0479824 0.0880361 -0.774654 -0.615541 -0.144981 
-0.441012 0.187157 -0.701899 -0.14428 -0.151475 0.977875 
