-0.370268 -0.148831 -0.091294 0.673768 0.507597 0.537012
0.010854 0.164467 0.049590 0.067799 0.914101 -0.399779
-0.415555 -0.177231 -0.092549 -0.240293 -0.119967 -0.963259
-0.453952 -0.047984 -0.015803 -0.307632 0.853005 0.421599
0.490860 -0.124820 -0.015953 0.423077 0.321447 0.847159
-0.112687 -0.292402 -0.006539 0.650040 0.029900 0.759311
0.171636 0.227349 0.007766 -0.331902 0.902082 0.275844
0.336378 -0.071074 -0.006062 0.130252 -0.539482 0.831861
0.018554 -0.103720 0.060496 0.448871 0.275543 -0.850053
-0.161952 -0.034587 -0.017422 0.556683 -0.818034 0.144655
0.430312 -0.069018 -0.011397 0.136595 0.678634 0.721663
-0.123451 0.025456 0.026075 -0.490041 -0.869503 0.061841
0.116310 -0.260273 -0.010209 -0.632191 -0.198517 0.748949
0.397752 0.100548 -0.022354 0.325832 0.079618 0.942069
-0.422825 -0.067385 0.009030 -0.070793 -0.292537 0.953630
0.068789 -0.285594 -0.010773 -0.427261 0.551540 0.716416
-0.047667 -0.332739 -0.025281 0.125430 0.487962 0.863806
0.245544 -0.284878 -0.057066 0.489891 -0.868057 0.080521
-0.079963 -0.321432 -0.010374 0.430469 0.088458 0.898261
0.167464 0.211888 0.014482 -0.132724 -0.322880 0.937088
-0.042105 0.082799 0.056425 0.312750 -0.103015 0.944233
0.086472 0.028755 -0.068056 -0.457517 -0.443164 -0.770898
0.058769 0.150507 0.018034 0.829970 0.332157 0.448131
0.022438 -0.039147 -0.015170 0.202875 -0.539714 -0.817038
-0.269930 -0.220000 -0.097308 0.027947 -0.002352 -0.999607
-0.229811 0.285572 -0.007158 0.325765 0.495527 0.805190
-0.295157 -0.270924 -0.049026 0.096382 -0.429100 0.898100
-0.400574 -0.211906 -0.078830 -0.726687 -0.504163 -0.466633
0.089906 -0.257733 -0.034476 -0.115891 0.930131 0.348462
-0.233327 -0.049447 -0.062448 -0.013717 -0.749849 -0.661467
-0.140448 -0.280350 -0.013224 -0.040207 -0.702978 0.710074
0.335426 -0.102322 -0.027689 -0.451225 -0.789952 0.415177
0.383079 -0.115147 -0.016004 -0.616094 -0.286174 0.733847
0.414392 -0.048123 -0.065888 0.481078 0.847482 -0.224361
-0.312269 -0.000845 -0.063368 -0.221751 0.842845 -0.490346
-0.058584 -0.015123 -0.001482 0.150425 -0.742488 -0.652751
0.237262 0.020581 -0.010086 0.381771 0.638028 0.668709
0.428087 0.094493 -0.032842 0.349971 0.249579 0.902901
0.272375 -0.041152 -0.086002 0.048340 0.035052 -0.998216
-0.142915 0.003254 -0.011319 0.764427 -0.011379 0.644610
0.458243 -0.121040 0.013850 -0.036489 0.594140 0.803533
-0.393261 -0.238073 -0.048157 0.894219 -0.445213 -0.046454
-0.260347 0.208954 -0.007654 -0.198403 -0.024768 -0.979807
-0.431326 -0.154645 -0.087878 -0.139860 0.563710 -0.814046
-0.172685 -0.239190 -0.090525 0.067373 0.848795 -0.524412
0.118953 -0.319163 -0.056895 0.686301 -0.278835 -0.671745
0.195357 0.113780 -0.031465 -0.027464 -0.998661 -0.043847
-0.450311 -0.197167 -0.049646 -0.653683 -0.454812 -0.604851
0.029698 0.066611 -0.074448 0.260170 -0.131463 -0.956571
-0.182461 -0.284495 -0.098661 -0.004132 0.469349 -0.883003
0.293059 -0.281166 -0.048661 -0.070553 -0.941016 -0.330924
0.196369 0.127674 -0.040776 0.456799 0.414192 -0.787261
-0.434023 -0.126571 -0.080002 0.502398 0.801840 -0.323493
0.380047 0.233341 -0.022538 0.141298 0.495792 0.856869
-0.031831 -0.062555 0.062792 -0.928748 -0.148064 -0.339858
0.239987 0.232838 0.015140 0.762327 -0.616795 0.196016
0.351244 -0.203703 -0.105809 -0.083053 0.203098 -0.975630
-0.323849 -0.022594 0.008307 -0.162724 0.348548 0.923057
0.209656 -0.051592 -0.030821 -0.135768 -0.832328 -0.537399
-0.065894 0.013347 -0.044947 0.596239 -0.367454 -0.713776
-0.076980 -0.274145 -0.051466 0.780766 0.351084 0.516860
-0.333661 0.105846 -0.032387 -0.004547 -0.618894 -0.785461
-0.317885 -0.034135 0.011647 -0.177032 -0.023856 0.983916
0.310574 -0.048879 -0.090944 -0.130520 0.411546 -0.901995
0.029368 -0.300971 -0.018870 -0.322457 0.479820 0.815962
-0.135230 0.001831 -0.074541 -0.194928 -0.006146 -0.980798
0.217327 -0.235169 -0.092684 0.030140 0.274292 -0.961174
0.153469 0.048367 0.027045 0.473431 -0.158183 0.866511
-0.436187 -0.039176 -0.041023 -0.450324 0.715591 -0.533982
0.419988 -0.100976 0.000724 -0.024949 -0.152537 0.987983
0.324948 -0.077702 -0.008522 0.183407 -0.642544 0.743975
-0.395414 -0.060179 0.026773 0.282212 0.417097 0.863937
0.441626 -0.179458 0.001586 0.676465 -0.319398 0.663611
-0.289247 -0.071556 -0.046583 0.339737 -0.889408 -0.305830
-0.366018 -0.233045 -0.037995 0.495966 0.490014 0.716871
-0.047359 0.032551 0.062621 0.045943 0.194963 0.979734
-0.118575 0.049120 0.046117 -0.657265 0.470222 0.588978
-0.287165 -0.251706 -0.097845 -0.582172 -0.204111 -0.787029
-0.035338 -0.064476 0.080873 -0.765793 0.000392 0.643087
-0.297632 0.100342 -0.017446 0.254250 -0.524406 -0.812623
-0.076793 0.091527 0.066088 0.764543 0.301994 0.569449
0.039938 -0.243626 -0.087600 -0.418059 -0.437184 -0.796302
-0.365506 -0.032951 -0.085328 -0.256844 0.647960 -0.717063
-0.262731 -0.001802 0.011936 -0.086039 0.717526 0.691197
0.298635 -0.067541 -0.087671 -0.473285 -0.514113 -0.715324
0.490590 -0.164707 -0.066856 0.993777 -0.075405 0.081985
-0.080403 0.087267 0.068017 -0.011938 -0.377611 0.925888
0.400235 -0.115467 -0.077345 -0.346353 -0.872509 -0.344628
-0.220694 0.003051 0.013839 0.034880 0.465441 0.884392
0.096430 0.170264 -0.049285 0.288768 0.881974 -0.372472
0.444162 -0.089210 -0.003240 0.262094 0.321688 0.909848
0.035942 0.162252 -0.055065 0.353427 0.362028 -0.862569
0.055625 0.056149 0.052392 0.725883 0.132221 0.674990
0.140917 -0.236584 -0.068638 0.049268 0.990499 -0.128393
0.481152 -0.131946 -0.074826 0.803097 0.590361 -0.080678
-0.199440 -0.281465 -0.033653 -0.237098 -0.228848 0.944147
0.238320 -0.254925 -0.095202 -0.049151 -0.004756 -0.998780
0.263208 0.107365 -0.009868 0.010879 -0.894954 -0.446025
0.422385 -0.084385 -0.091094 0.379017 0.562083 -0.735125
0.000944 -0.030628 -0.016427 -0.135721 -0.367568 -0.920040
0.063137 0.138198 0.027179 0.181204 0.635945 0.750159
0.438738 -0.186555 -0.005398 -0.208287 -0.712177 0.670388
0.329482 -0.251427 -0.048289 0.153398 -0.291837 0.944087
0.352065 -0.063861 -0.098875 -0.038687 0.454728 -0.889790
0.365418 -0.241587 -0.102138 0.484194 -0.515547 -0.706942
-0.038165 0.181686 -0.027872 0.203652 0.971328 -0.122672
0.386643 -0.103620 -0.090470 -0.291033 -0.787915 -0.542669
0.132767 -0.006499 -0.046244 -0.557215 -0.540174 -0.630653
-0.266673 0.003210 -0.061283 -0.071423 0.345968 -0.935524
-0.198459 0.238603 0.012781 0.894477 0.331185 -0.300380
-0.273573 -0.242425 -0.034888 -0.057251 -0.203076 0.977488
-0.073085 0.008848 -0.040331 0.373537 -0.906582 -0.196413
0.383171 0.093612 -0.035660 -0.252808 -0.873738 -0.415535
0.095367 0.009299 0.054111 0.152613 -0.195617 0.968733
0.136738 0.215229 -0.009715 0.200726 0.875314 -0.439926
0.086987 0.168894 -0.040603 0.321377 0.749139 -0.579231
0.098624 -0.005693 0.020510 0.254253 -0.388772 0.885557
-0.377210 -0.064660 0.012751 -0.458221 0.471431 0.753516
0.180568 0.120938 -0.022040 -0.355535 -0.474490 0.805266
0.005758 -0.078528 0.091292 0.574332 -0.508903 0.641217
0.041021 -0.292177 -0.022519 0.025454 0.784682 0.619375
0.130728 -0.239143 -0.078201 -0.450643 0.891015 0.054888
0.437799 -0.238079 -0.067588 0.409780 -0.866303 -0.285657
0.271120 -0.226625 -0.042582 -0.347694 0.816192 0.461454
-0.056338 -0.025029 0.012306 -0.692209 -0.721695 0.001975
0.158632 -0.309365 -0.043791 0.440961 -0.873109 0.207927
0.054585 -0.018367 -0.008293 0.903982 -0.323940 -0.279070
0.080438 0.149883 0.001016 0.548543 0.465057 0.694855
0.035197 -0.053745 0.011521 0.254229 -0.962482 0.094844
0.370814 -0.255934 -0.088480 -0.302614 -0.938814 -0.164480
-0.025088 -0.046613 0.018588 -0.995780 0.084581 -0.035614
-0.073151 -0.006014 0.023047 -0.203821 -0.570631 0.795511
-0.206114 0.104567 -0.034704 -0.134909 -0.709860 -0.691302
-0.394643 -0.054432 -0.087871 -0.242516 0.367902 -0.897683
0.183097 -0.005958 -0.008772 0.245202 0.197971 0.949043
0.014681 0.026234 -0.043181 -0.182413 -0.174011 -0.967701
-0.376137 0.280598 -0.061787 -0.660943 -0.667332 -0.343252
-0.443732 -0.177012 -0.014453 -0.367463 -0.803466 0.468415
0.080257 -0.250120 -0.085796 0.150355 -0.182742 -0.971596
0.053155 -0.069514 0.081865 -0.426475 -0.782739 0.453254
0.364098 -0.264388 -0.078808 0.139867 -0.727744 -0.671436
-0.197333 0.104460 -0.016945 0.180499 -0.797645 0.575484
-0.180690 -0.236763 -0.095288 0.256086 -0.007657 -0.966624
0.369612 -0.088380 -0.004914 -0.486643 -0.537077 0.689005
0.409042 -0.064182 -0.008683 0.447857 0.724305 0.524219
-0.019571 0.045376 -0.071957 0.059351 -0.505179 -0.860971
-0.232609 -0.264265 -0.035208 -0.021575 -0.148576 0.988666
-0.007875 -0.048433 0.001903 -0.221252 -0.815338 -0.535043
-0.018875 -0.055028 0.029847 0.608352 -0.200476 -0.767930
-0.124585 -0.357691 -0.033226 0.093814 -0.545236 0.833017
-0.404927 -0.059529 0.009484 -0.359043 0.234275 0.903440
0.042806 -0.249787 -0.067361 -0.616726 0.014395 0.787046
-0.066295 0.075417 0.062662 0.649893 0.115779 0.751156
-0.043788 0.178756 -0.015146 -0.010051 0.864326 0.502832
-0.231917 0.024767 -0.001185 -0.483260 0.874346 0.044482
0.173282 0.000497 -0.018978 -0.894011 0.096843 0.437454
-0.181363 -0.249333 -0.100457 -0.161568 -0.151270 -0.975199
-0.188654 -0.322663 -0.059688 -0.411416 -0.743682 -0.526947
-0.169112 -0.321164 -0.036493 -0.475775 -0.138712 0.868560
-0.333635 -0.183629 -0.099843 -0.008821 0.288207 -0.957528
-0.364967 -0.088693 -0.042280 0.030537 -0.933598 -0.357020
0.165679 0.117650 -0.055539 0.442256 -0.590663 -0.674927
-0.223094 0.005345 0.012562 -0.031350 0.453262 0.890826
-0.292174 -0.061063 -0.072454 0.449081 -0.827612 -0.336726
0.370519 -0.050298 -0.089286 0.211409 0.532831 -0.819388
-0.191651 0.071902 -0.027562 -0.463787 -0.632656 -0.620200
-0.283717 0.005112 0.004034 -0.137653 0.696175 0.704551
-0.071059 0.183810 -0.014852 0.373534 0.526388 0.763798
0.238566 0.272611 -0.004202 -0.273673 0.874233 -0.401023
0.180571 0.209452 0.014164 0.142925 -0.768228 0.624018
-0.472805 -0.186112 -0.055935 0.154593 -0.654892 -0.739742
0.083513 -0.257831 -0.034942 -0.015179 0.922814 0.384946
0.080664 0.121443 0.051438 0.392774 -0.061570 0.917572
-0.199917 0.189035 0.003219 -0.771516 0.134044 -0.621928
-0.232709 0.060615 0.006782 0.654553 -0.732774 0.186020
-0.012046 0.144833 0.055385 -0.242910 0.605487 0.757878
0.305350 -0.231820 -0.039542 0.092809 0.005569 0.995668
0.474382 -0.137869 -0.011981 0.684665 0.611686 0.396326
0.137356 0.063900 -0.028674 0.824505 -0.235023 -0.514738
-0.435976 0.108960 -0.049237 0.216748 0.519598 -0.826461
-0.068870 0.107158 -0.070995 -0.648063 0.392918 -0.652403
0.370710 -0.196097 -0.067122 -0.190956 0.893999 0.405342
0.032169 0.091825 0.075645 0.780246 0.557267 0.284025
-0.310717 0.012758 -0.022367 -0.396786 0.789696 0.467912
0.467184 -0.131453 -0.003299 0.623083 -0.316439 0.715285
0.451794 -0.172229 -0.002372 -0.204611 -0.169780 0.964007
0.251850 -0.045398 -0.086302 -0.377281 0.035809 -0.925406
-0.180580 0.014292 0.023088 0.601321 0.680933 0.418022
-0.373835 -0.197962 -0.100510 0.063649 0.036739 -0.997296
-0.318839 0.104715 -0.027675 0.373476 -0.231612 -0.898260
0.393370 -0.039078 -0.023479 0.118116 0.716688 0.687318
0.307848 -0.219058 -0.100957 -0.101554 0.141815 -0.984670
-0.089799 0.048441 -0.067979 -0.254235 0.695678 -0.671861
-0.303797 -0.289283 -0.053704 -0.264011 -0.403539 0.876045
0.034044 -0.056695 0.025990 -0.156226 -0.922686 0.352484
-0.255990 0.103477 -0.022378 -0.397418 0.485300 -0.778809
0.449612 0.082241 -0.049025 0.292755 -0.643633 0.707128
-0.143883 -0.008225 -0.009200 0.836267 0.162066 0.523825
-0.206232 -0.265954 -0.098181 -0.485549 -0.179602 -0.855562
0.438493 -0.200236 -0.102448 -0.037847 -0.202140 -0.978625
0.250071 0.255460 0.016655 0.361931 0.069441 0.929615
-0.296893 -0.078904 -0.028825 0.532263 -0.846545 -0.007619
-0.169509 -0.312727 -0.035522 -0.371794 -0.013069 0.928223
-0.217894 -0.226251 -0.057616 0.147537 0.948241 0.281196
0.352912 -0.221082 -0.106677 0.011153 0.122708 -0.992380
-0.282672 -0.197760 -0.091024 0.834441 0.512029 -0.203799
0.015563 -0.305971 -0.051243 -0.257245 -0.663888 -0.702195
-0.444761 0.100434 -0.051736 0.166028 -0.821404 -0.545647
0.400881 0.099142 -0.023471 0.303560 -0.111159 0.946306
-0.224822 -0.054539 -0.004596 -0.023229 -0.820870 0.570643
0.346593 -0.045797 -0.003105 0.383673 0.255555 0.887405
0.269151 0.072015 -0.007253 0.733666 0.633715 -0.245233
-0.396637 -0.156298 -0.025111 0.488587 0.012385 0.872427
0.289638 -0.215573 -0.062291 -0.269175 0.903954 0.332284
-0.164702 -0.007212 -0.075181 0.636189 0.201347 -0.744797
0.272762 -0.004730 -0.000500 0.279633 0.392787 0.876085
0.268859 -0.025623 0.005620 -0.284673 -0.046906 0.957476
-0.020925 -0.259903 -0.052329 0.010394 0.524724 0.851209
-0.005951 0.116545 -0.080839 -0.610881 -0.118945 -0.782736
0.359304 -0.047139 -0.004405 -0.023459 0.469167 0.882798
-0.425090 -0.101403 -0.032748 0.841196 -0.472276 -0.263333
0.186603 0.027741 -0.072552 0.048592 0.348449 -0.936067
-0.212682 0.263117 -0.003002 0.693186 0.603061 0.394728
-0.202371 -0.301067 -0.080075 -0.247075 -0.621682 -0.743280
0.283594 -0.004062 -0.004979 0.314781 0.615675 0.722397
0.108619 -0.239486 -0.068563 0.225447 0.947440 0.227003
-0.410696 -0.036899 -0.000399 0.047952 0.698721 0.713785
0.011019 0.082175 0.091544 0.058224 -0.812399 0.580187
-0.439716 -0.053077 0.001126 -0.272172 0.576575 0.770379
0.084931 -0.264903 -0.016129 -0.181656 0.698087 0.692587
-0.039562 -0.035735 0.009578 -0.060115 -0.394304 -0.917012
-0.118383 0.030081 0.052365 0.396517 0.183746 0.899451
-0.466544 -0.107405 -0.000194 -0.592592 0.228202 0.772501
0.047046 0.112107 0.056595 0.805226 0.109104 0.582845
-0.284143 -0.045798 0.008353 0.252170 -0.433335 0.865235
0.358601 -0.131252 -0.038502 0.137003 -0.497306 -0.856690
0.195618 0.010997 -0.079548 0.002623 0.325677 -0.945478
-0.070286 -0.014396 0.002021 -0.266188 -0.959170 -0.095582
-0.132326 -0.248742 -0.094869 -0.503192 0.277104 -0.818542
0.159369 -0.274629 -0.029292 0.192972 -0.296498 0.935335
0.359156 -0.247085 -0.053486 0.321410 -0.057789 0.945175
-0.390798 -0.134418 -0.096812 -0.011031 0.103612 -0.994557
0.223458 -0.273076 -0.089655 0.333078 -0.567056 -0.753330
-0.212748 0.121338 -0.026481 -0.093825 0.986498 -0.134230
-0.195690 -0.271614 -0.097774 -0.036740 -0.145981 -0.988605
-0.111833 -0.340292 -0.006910 -0.478388 -0.510379 0.714603
0.403020 -0.186718 -0.008055 -0.015202 0.411980 0.911066
-0.020098 0.097447 -0.077699 0.064959 0.181840 -0.981180
0.292619 0.107697 0.003953 -0.155107 -0.909387 0.385949
-0.354356 -0.036392 -0.090025 0.002893 0.399044 -0.916927
0.029598 -0.300243 -0.019257 -0.301132 0.521345 0.798448
0.267664 -0.213563 -0.081948 -0.403614 0.909294 -0.101387
-0.101225 0.035729 0.052120 -0.027318 -0.441579 0.896806
0.172913 0.120556 -0.053068 0.451228 -0.444036 -0.774096
-0.422145 -0.203381 -0.011938 0.230410 0.413675 0.880786
-0.304231 -0.258470 -0.078303 -0.292690 -0.674295 -0.677981
0.156625 0.047591 -0.010763 0.966236 -0.017188 -0.257083
0.178305 -0.320351 -0.047691 0.253938 -0.640400 0.724847
0.199250 0.085858 -0.031669 0.267334 0.952097 -0.148471
-0.233845 -0.052145 -0.057250 0.237294 -0.838805 -0.489997
0.123340 0.005828 -0.039007 -0.452335 -0.657830 0.602207
0.206722 -0.264055 -0.093698 -0.098851 0.000938 -0.995102
-0.001132 0.024201 0.096100 0.137467 0.098667 0.985580
-0.228919 -0.019097 0.015081 0.004636 -0.423494 0.905887
-0.092816 0.181161 -0.003389 0.032001 -0.656298 0.753822
0.304098 -0.253036 -0.042453 0.483321 -0.046541 0.874205
0.238018 0.077823 -0.019805 0.312934 0.682805 -0.660189
-0.195984 -0.233392 -0.092040 0.111778 0.608628 -0.785543
-0.426357 -0.160189 0.001312 -0.491340 0.411036 0.767877
-0.259244 -0.208607 -0.064914 0.268604 0.872184 0.408835
0.106855 -0.011632 -0.000999 0.434076 -0.712323 0.551520
0.058068 0.129119 0.037638 0.605436 0.400192 0.687963
0.447651 -0.171191 -0.097282 -0.134667 0.096912 -0.986140
-0.043887 -0.325324 -0.060893 0.184024 0.660126 -0.728264
-0.302352 -0.259014 -0.030024 0.657047 0.426496 0.621604
-0.107343 0.012895 -0.070203 0.459207 -0.038942 -0.887475
-0.245174 0.027618 -0.005363 0.305224 0.690804 0.655460
-0.182632 0.231698 0.018950 -0.099259 0.897355 -0.430001
-0.000353 -0.015132 -0.022279 0.201076 -0.229600 -0.952288
0.426294 -0.189054 -0.012323 -0.265221 0.038981 0.963399
0.043984 0.143962 0.032886 0.576163 0.675619 0.459973
-0.283537 -0.247677 -0.098356 0.073107 0.368179 -0.926876
0.306123 -0.040184 0.004106 -0.060627 -0.277935 0.958685
-0.043652 0.099394 0.054728 0.191680 0.547678 0.814437
-0.429051 -0.049393 -0.067784 -0.394143 0.472214 -0.788457
0.093289 -0.260843 -0.015251 -0.285005 0.958296 0.021005
0.027263 0.096443 0.074487 0.528314 0.343293 0.776553
-0.144195 0.127775 -0.044525 -0.039937 0.974412 0.221191
0.005978 -0.049437 -0.001237 0.410057 -0.910715 0.049516
-0.063983 0.164852 -0.024673 -0.807497 -0.525520 0.267914
0.148493 0.032444 -0.077846 0.298556 0.646131 -0.702409
-0.139345 0.216695 0.011528 0.423996 0.786967 0.448231
-0.166976 0.084717 -0.015199 0.405193 0.452504 0.794392
-0.134576 -0.244542 -0.081351 0.107828 0.994109 0.010950
-0.263255 -0.203484 -0.081511 0.395683 0.916051 -0.065467
0.115148 -0.245539 -0.084013 0.147680 0.283752 -0.947457
-0.044538 0.171764 -0.008716 0.260416 0.369969 0.891800
0.061189 -0.328139 -0.035092 -0.999134 -0.022462 0.035032
0.038303 0.170079 -0.004394 0.341833 0.617566 0.708352
-0.294765 -0.193278 -0.093592 0.587853 0.098200 -0.802985
0.346330 0.039391 -0.036398 -0.350348 -0.343131 -0.871503
-0.191272 0.228388 0.025008 0.315676 0.488076 0.813714
0.187060 0.127562 -0.046282 0.458402 0.336785 -0.822462
0.113786 0.113376 -0.065874 0.112626 -0.983161 -0.143909
-0.028681 0.034651 -0.063662 -0.152031 -0.736517 -0.659112
-0.039025 0.049308 0.053273 0.061971 0.643993 0.762517
-0.138707 0.118360 -0.065079 -0.507614 0.130913 -0.851581
0.377126 -0.031008 -0.075786 0.670709 0.740148 -0.048274
-0.135686 0.197608 0.011262 -0.059647 -0.894874 0.442316
-0.096882 0.184385 -0.000627 0.158748 -0.491807 0.856110
-0.469982 -0.077015 -0.005437 -0.538088 0.305657 0.785516
0.121965 0.083674 -0.080683 0.212300 -0.092073 -0.972857
0.028493 -0.283142 -0.057129 0.206935 0.435005 -0.876327
0.399573 0.104477 -0.038356 0.093617 0.931289 -0.352046
-0.190923 -0.230841 -0.091154 -0.195961 0.977697 -0.075547
0.176704 -0.269012 -0.028886 0.155402 -0.273611 0.949204
0.257717 -0.282794 -0.066870 0.147276 -0.979629 0.136515
-0.427562 -0.204236 -0.036226 -0.621547 -0.666266 0.412032
0.316404 0.121475 -0.003019 0.119920 0.990417 0.068514
0.445553 -0.030210 -0.096629 -0.508445 0.522740 -0.684271
0.363713 0.233481 -0.026555 -0.223120 0.957140 0.184665
0.242595 0.275245 0.001051 -0.842938 0.186868 0.504515
-0.001371 -0.020862 0.100407 -0.395005 -0.300840 0.868024
0.358378 -0.040572 -0.084668 0.068701 0.520275 -0.851231
-0.089254 -0.263138 -0.102947 -0.285854 -0.189925 -0.939264
0.381678 -0.092876 -0.101858 0.463074 -0.568630 -0.679870
0.185789 -0.027557 -0.057045 -0.566335 -0.720688 -0.399842
-0.027524 0.035069 -0.064441 -0.247655 -0.761965 -0.598395
-0.391610 -0.163282 -0.099125 -0.033180 0.618930 -0.784745
-0.426623 -0.209907 -0.044587 -0.788140 -0.471031 0.396190
-0.256702 0.109467 -0.018266 -0.167802 0.353676 -0.920193
0.356823 -0.188255 -0.106075 0.079717 0.173045 -0.981683
0.026325 -0.319053 -0.016855 0.428492 -0.571268 0.700034
-0.190289 0.122707 -0.029300 -0.047399 0.997118 0.059235
0.015005 0.020561 0.103158 0.201748 -0.743266 0.637851
0.117618 0.205534 -0.001892 -0.464522 0.532201 0.707801
0.197220 0.217880 0.001509 0.319565 -0.434506 -0.842070
-0.132362 -0.332785 -0.019131 -0.633604 -0.105363 0.766449
-0.210091 -0.281174 -0.035939 -0.145931 -0.210072 0.966734
0.004323 -0.303252 -0.051006 0.066235 -0.828418 -0.556180
0.300061 -0.270794 -0.081304 0.192076 -0.843382 -0.501811
-0.011250 0.179485 -0.037217 -0.074435 0.846204 0.527635
0.235135 -0.234379 -0.039708 0.193331 0.745619 0.637711
0.357773 -0.104224 -0.021408 -0.347427 -0.543047 0.764457
0.243646 -0.001006 -0.078228 0.235427 0.420686 -0.876126
0.171893 0.220814 0.015646 -0.335948 0.396609 0.854307
0.115328 -0.241413 -0.062082 -0.048199 0.942779 0.329916
0.023610 -0.009731 -0.025377 -0.232463 -0.237017 -0.943284
-0.087232 -0.315279 -0.078988 0.754873 -0.529716 -0.386741
0.434238 -0.218144 -0.022591 0.249907 -0.581140 0.774482
0.485027 -0.125006 -0.009849 0.762604 0.481539 0.431921
-0.389193 -0.231223 -0.049496 0.367246 -0.059227 0.928236
0.260859 -0.279208 -0.052564 -0.034146 -0.845094 0.533526
0.114107 -0.269732 -0.085968 -0.371411 0.073981 -0.925517
0.070062 -0.296657 -0.069738 -0.661192 -0.406738 -0.630388
-0.404259 0.034250 -0.037329 -0.620038 0.223517 0.752059
0.379133 -0.181814 -0.099052 -0.203442 0.893886 0.399474
0.479346 -0.113255 -0.028546 0.974830 0.158479 -0.156813
0.399430 -0.279576 -0.048742 0.455665 0.423150 0.783143
0.378220 -0.062014 0.003406 0.022849 0.781618 0.623339
0.187443 -0.269134 -0.029173 -0.307228 0.229911 0.923446
-0.112584 0.034126 -0.067139 -0.161278 0.425571 -0.890437
0.044700 0.021180 0.073875 0.735311 0.380029 0.561156
0.122502 0.025543 -0.070717 0.025403 -0.098521 -0.994811
-0.148038 -0.025609 -0.042323 -0.628124 -0.739888 -0.240887
0.039782 0.105563 0.066455 0.550402 -0.206376 0.808991
0.105791 0.119653 0.046491 0.132239 0.443553 0.886438
0.018949 0.058461 0.076834 0.405093 0.154144 0.901188
-0.332241 -0.236650 -0.042363 -0.143716 -0.166513 0.975510
-0.442501 -0.104048 0.007325 0.402004 -0.012554 0.915552
0.452003 -0.156376 -0.059768 -0.935872 0.078277 -0.343534
0.215569 0.237025 0.023756 -0.119969 0.671852 0.730905
0.316515 0.101256 -0.005392 -0.165372 -0.976943 0.135037
0.440134 -0.075621 -0.005911 0.200805 -0.161240 0.966271
-0.476023 -0.114266 -0.007010 -0.681518 0.085018 0.726846
0.014897 -0.121285 0.052521 0.123920 0.409583 -0.903817
0.246263 0.113620 -0.018687 0.162968 -0.705451 -0.689768
-0.069224 0.183032 -0.015277 0.410136 0.511628 0.755000
0.129521 0.092545 -0.062558 0.203234 0.944146 0.259394
0.050696 -0.223427 -0.080021 0.474049 0.845370 0.246224
-0.120649 0.109995 -0.068492 -0.342911 -0.828329 -0.443038
-0.077366 -0.287918 -0.044255 0.934016 -0.018794 0.356736
0.320287 -0.030111 -0.000257 0.227449 0.352843 0.907617
-0.203168 -0.226441 -0.073712 0.309149 0.939935 0.144742
0.194935 -0.036474 -0.014459 -0.588540 -0.624865 0.512996
-0.378629 -0.213267 -0.089853 -0.442660 -0.610398 -0.656861
0.444985 -0.158814 -0.032369 -0.985052 0.151220 -0.082499
0.043196 -0.283730 -0.032114 -0.114879 0.708605 0.696191
0.024815 -0.057295 0.032777 0.623166 -0.436403 0.649012
0.056868 0.006635 -0.025703 0.573517 -0.655163 -0.491772
0.030435 -0.074988 0.103660 0.175618 0.313284 0.933280
0.480814 -0.114959 -0.042502 0.885739 0.149876 0.439321
-0.283833 -0.265811 -0.077745 -0.053161 -0.811633 -0.581744
-0.280778 0.227457 -0.007666 0.387180 0.884644 -0.259801
-0.032044 -0.266341 -0.056050 -0.849393 -0.418882 0.321046
0.131697 0.111636 0.023130 0.790446 0.543996 0.281539
-0.322054 0.062416 -0.000774 -0.503790 0.570306 0.648804
-0.464494 -0.074367 -0.079568 -0.314745 0.893546 -0.320172
-0.230948 0.352897 -0.050340 -0.003606 0.663792 0.747909
-0.303037 -0.051235 0.005143 -0.002279 -0.531542 0.847029
0.302863 0.203093 0.008542 0.351681 0.107853 0.929886
0.336266 -0.030406 -0.079636 0.084923 0.635444 -0.767463
-0.446038 -0.133260 0.007668 -0.606671 0.001950 0.794950
0.371782 0.040380 -0.027234 0.532679 0.803153 0.266832
0.012157 -0.060032 0.035956 0.359342 -0.638072 -0.680982
0.095958 0.020826 -0.071030 -0.029675 -0.808908 -0.587186
-0.071416 0.045076 0.067417 0.398323 -0.161476 0.902920
0.455332 0.083934 -0.050941 0.540624 -0.103351 0.834892
-0.036539 -0.363188 -0.032706 -0.056567 -0.997856 -0.032918
-0.301951 0.107729 0.000342 -0.133628 0.230228 0.963918
-0.369569 -0.036805 0.005534 -0.237731 0.427640 0.872128
-0.428673 -0.102370 -0.006865 0.315125 -0.565578 0.762114
0.387743 -0.072474 0.005609 0.754011 0.236640 0.612755
-0.278583 0.068561 0.013784 -0.333008 0.430884 0.838716
0.158808 0.132070 -0.059466 0.405409 0.629268 -0.663073
0.238183 0.234247 0.020144 0.553118 -0.532156 0.640992
-0.237345 0.063501 0.017593 0.291875 -0.646921 0.704487
-0.421098 0.017036 -0.068444 0.733130 -0.182393 -0.655174
0.341217 0.043086 -0.019408 -0.070612 -0.562531 0.823756
0.079153 -0.309301 -0.068775 -0.555825 -0.807884 -0.195915
-0.321150 -0.201291 -0.099088 0.017168 0.034576 -0.999255
0.022122 -0.276459 -0.057784 0.622332 0.277545 -0.731896
0.358363 -0.274415 -0.073866 0.442275 -0.354459 -0.823864
-0.107644 0.155452 -0.023338 0.244568 -0.727291 0.641275
-0.336426 -0.095891 -0.028386 0.745615 -0.489334 0.452339
-0.012518 -0.056578 0.096865 -0.419217 0.301901 0.856220
0.390309 -0.066950 0.000067 0.462370 0.509523 0.725672
-0.254402 -0.281887 -0.048455 -0.471376 -0.581558 0.663019
0.400252 0.010251 -0.053389 0.204652 -0.690936 -0.693343
0.072468 0.187004 -0.019383 -0.031428 0.865626 0.499703
0.357270 0.215119 -0.023849 0.236330 -0.949580 -0.206023
0.151282 -0.292708 -0.079003 0.032061 -0.750774 -0.659780
-0.083288 -0.297305 -0.030341 0.667916 0.396001 0.630136
-0.335620 0.057766 -0.027752 -0.022713 0.508159 -0.860964
-0.129739 -0.252435 -0.096407 -0.095064 0.297607 -0.949944
-0.185536 -0.284081 -0.098135 -0.214474 0.233803 -0.948334
0.277564 0.348722 -0.017079 -0.318250 0.323778 0.891002
-0.069495 -0.349313 -0.055839 0.119087 -0.483692 -0.867099
0.066149 0.026998 0.061649 0.113155 -0.131799 0.984797
-0.388331 -0.139940 -0.086916 0.764013 0.584207 0.273835
-0.172840 -0.264838 -0.024808 0.150090 -0.455733 0.877372
-0.258934 -0.228771 -0.096888 0.023096 0.127141 -0.991616
0.240231 0.124806 -0.024743 0.381163 0.284411 -0.879674
0.320798 -0.109504 -0.024224 -0.563888 -0.818707 0.108387
-0.422018 -0.167600 -0.093481 0.157934 0.015760 -0.987324
0.209608 0.125420 -0.008234 -0.349777 -0.021654 0.936583
-0.243895 -0.065544 -0.026195 -0.050753 -0.939764 0.338034
-0.302072 -0.293866 -0.054828 -0.281510 -0.264840 0.922286
0.351165 -0.194045 -0.084278 -0.652384 0.745794 0.134853
-0.308391 0.106480 -0.000361 -0.117692 0.037890 0.992327
-0.294793 -0.272014 -0.070649 0.281766 -0.828490 -0.483954
0.315583 -0.025997 -0.078369 -0.053796 0.552273 -0.831926
0.380966 -0.057504 -0.002853 0.198134 0.668148 0.717162
0.252462 -0.259691 -0.096257 0.243432 0.100294 -0.964719
-0.255813 0.338875 -0.046140 -0.231567 0.363086 -0.902522
0.091650 0.140812 -0.046586 0.752785 0.476922 -0.453717
-0.300753 -0.286357 -0.063915 -0.008623 -0.157152 -0.987537
0.040379 -0.314360 -0.011494 -0.025036 -0.987149 0.157831
-0.194784 -0.283188 -0.033383 -0.165851 -0.379998 0.909997
0.062363 0.092362 -0.084781 0.048547 0.151488 -0.987266
-0.098221 -0.257002 -0.067048 0.153017 0.766476 0.623779
-0.213366 -0.220847 -0.077321 0.163159 0.944675 -0.284549
-0.259753 -0.209690 -0.061957 0.310088 0.851556 0.422727
0.018624 0.138036 0.080257 0.502300 0.840335 0.203795
-0.370630 0.287667 -0.058465 0.248113 0.851985 0.461044
-0.429671 0.107960 -0.029205 -0.208143 0.296660 0.932024
0.348968 -0.058180 -0.002037 0.043794 0.077645 0.996019
-0.295954 -0.033127 0.014018 0.158452 -0.169754 0.972665
-0.078154 0.180072 -0.009276 0.698893 0.158478 0.697448
-0.160277 -0.293095 -0.095643 0.146895 -0.046576 -0.988055
-0.478523 -0.106709 -0.067245 -0.919017 -0.121271 -0.375101
-0.170471 0.088550 -0.018109 0.137479 0.898274 0.417378
0.451429 -0.193472 -0.009942 0.150496 -0.201405 0.967878
0.296497 0.047664 0.000007 -0.002731 -0.846267 0.532751
0.070339 -0.323640 -0.056505 0.351052 -0.455135 -0.818300
-0.001390 0.016158 0.096712 -0.835950 0.019530 0.548458
0.057351 0.138700 0.029637 0.488918 0.412187 0.768805
0.093306 -0.248119 -0.085559 -0.041258 0.043776 -0.998189
0.000574 -0.084798 0.089978 0.262847 -0.759885 0.594547
-0.139445 0.127106 -0.042573 0.052430 0.908117 0.415420
-0.082732 0.081385 -0.082941 -0.447914 -0.714680 -0.537220
-0.479739 -0.122260 -0.067542 -0.660035 0.501689 -0.559162
0.338913 -0.239529 -0.047235 0.223681 -0.373454 0.900277
-0.233160 0.062729 0.012568 0.562169 -0.729038 0.390475
0.309817 -0.255170 -0.099589 0.629503 -0.507047 -0.588753
0.205884 -0.018895 -0.001277 -0.100848 -0.288209 0.952242
-0.105611 -0.346603 -0.066588 0.163285 -0.482101 -0.860765
0.054566 0.069659 -0.080449 -0.252531 -0.298614 -0.920357
-0.346598 -0.018601 -0.076274 -0.253421 0.627797 -0.735968
0.149211 0.175495 -0.035390 -0.008421 0.603642 -0.797211
-0.286728 -0.037821 -0.085489 0.156083 0.054825 -0.986221
0.337253 -0.226251 -0.105123 -0.053235 0.160682 -0.985570
-0.271995 -0.259677 -0.040741 -0.358409 -0.364794 0.859342
0.025463 -0.336741 -0.044139 0.240841 0.386565 0.890260
0.114050 -0.326051 -0.036331 0.256007 -0.614614 0.746130
-0.460538 -0.110551 0.005392 -0.727053 0.237642 0.644143
-0.156732 0.178050 -0.001954 0.362799 0.713935 0.598893
0.410784 -0.122824 -0.003130 -0.523869 0.224600 0.821655
-0.065364 -0.348007 -0.056550 -0.097681 -0.499870 -0.860574
-0.001699 -0.103350 0.069041 -0.727658 0.434831 -0.530505
-0.417104 -0.141105 -0.004962 0.430610 0.575704 0.695082
-0.182301 -0.001346 -0.076490 0.050449 0.199080 -0.978684
0.021481 -0.121879 0.063355 0.415985 -0.614899 0.669967
0.044686 -0.032550 0.088551 0.636696 -0.610170 0.471499
0.024640 0.171645 0.022498 0.219433 0.960186 0.172894
-0.093954 0.072733 0.065567 -0.864035 0.352826 0.359106
0.462608 -0.067644 -0.028945 0.068966 0.969064 0.236978
0.410511 -0.168276 -0.102887 0.422133 0.255461 -0.869795
0.312774 -0.212252 -0.100573 -0.067383 0.230524 -0.970731
-0.071870 0.005583 0.049041 -0.333214 -0.872326 0.357792
0.138209 0.030345 0.037604 0.677710 -0.667458 0.308559
-0.392192 -0.204806 -0.051273 -0.146090 -0.001960 0.989269
0.076791 0.059983 -0.076919 -0.007721 0.749491 -0.661969
0.102801 -0.289685 -0.016795 0.814363 -0.421350 0.399096
0.159473 0.117468 -0.058059 0.125259 -0.751847 -0.647330
0.481166 -0.184602 -0.016335 0.347091 -0.853206 -0.389317
0.466744 -0.180527 -0.008780 0.437269 -0.226328 0.870386
-0.004654 -0.350535 -0.052670 0.050503 -0.612018 -0.789230
0.190329 -0.273454 -0.026661 0.233027 -0.629463 0.741266
0.443423 -0.078207 -0.007521 0.529209 0.172700 0.830730
-0.061708 0.011528 -0.038077 0.506279 -0.841129 -0.190218
0.134925 0.133377 -0.067803 -0.381766 0.428622 -0.818864
0.281833 -0.013545 0.004527 -0.022616 0.715611 0.698133
-0.328141 0.114470 -0.029897 0.279484 0.615189 -0.737178
0.027669 0.171587 -0.054732 0.167556 0.217229 -0.961632
-0.235413 0.062290 0.014592 0.480693 -0.762589 0.432888
0.184563 -0.251159 -0.092670 -0.032072 -0.031792 -0.998980
0.276163 0.203081 -0.001646 -0.554318 0.418346 -0.719526
-0.050370 0.129797 0.031450 0.175844 0.872858 0.455189
-0.227662 0.181086 0.016878 -0.261988 -0.959872 -0.100043
0.409535 -0.211467 -0.026723 -0.901330 -0.027663 0.432248
-0.028517 -0.051735 0.042568 -0.911490 -0.379153 -0.159463
-0.082217 0.093750 0.066121 -0.596466 0.601300 0.531664
-0.253063 -0.028472 -0.079550 -0.003143 0.174268 -0.984693
-0.030117 -0.049083 0.072238 -0.784639 0.371102 0.496613
-0.233757 0.284691 -0.005744 0.043163 0.383967 0.922337
0.013484 0.058161 0.078019 -0.091440 0.328752 0.939979
-0.324875 -0.074652 -0.063930 0.216134 -0.868374 -0.446332
-0.421360 -0.158220 -0.000198 0.194958 0.394777 0.897854
0.135643 -0.240584 -0.047034 -0.519101 0.842964 0.141231
0.109446 0.164050 -0.050092 0.485345 -0.351189 -0.800691
0.300874 0.118904 -0.009397 -0.334917 0.497863 -0.799977
0.155798 0.058738 0.025648 0.877315 -0.446869 0.175006
0.235238 0.245529 0.021084 -0.191714 0.389363 0.900912
-0.101829 -0.248093 -0.097829 0.094372 0.525009 -0.845848
-0.077175 -0.282033 -0.064393 0.877297 0.461123 -0.133102
0.121296 -0.250359 -0.028136 -0.244825 0.959425 0.139872
0.234234 0.033164 -0.034718 0.364045 0.931353 -0.007277
0.048476 0.176056 -0.042783 0.440416 0.447044 -0.778579
0.063439 0.097825 0.054365 -0.256706 0.487744 0.834391
-0.046007 -0.027387 0.047640 -0.602762 -0.492375 0.627889
0.463265 -0.069847 -0.025294 0.450127 0.721848 0.525662
0.230750 0.072155 -0.026752 0.425972 0.088701 -0.900378
0.418571 0.098985 -0.030332 0.439591 0.501200 0.745358
0.394005 -0.042436 -0.019677 -0.094432 0.748690 0.656161
0.048326 -0.275575 -0.042431 -0.221634 0.965477 0.136868
-0.052088 -0.275065 -0.096457 0.561905 -0.572998 -0.596604
-0.362545 -0.173239 -0.050380 0.285935 0.756530 0.588136
0.295112 -0.058766 -0.090677 -0.044979 0.259181 -0.964781
0.185967 0.214299 0.019426 0.225965 -0.456606 0.860494
-0.100812 0.172282 -0.031032 0.384059 0.811150 0.441060
0.076223 0.015152 -0.030668 -0.463063 -0.876901 0.128905
0.414835 -0.049350 -0.028153 0.274954 0.749384 0.602349
-0.009096 0.048817 0.072036 -0.639619 0.357394 0.680557
0.382608 0.232133 -0.046460 -0.570898 0.052031 -0.819371
0.219730 -0.223683 -0.073742 -0.304217 0.891163 0.336572
-0.412949 -0.196093 -0.083024 -0.190068 -0.739559 -0.645699
-0.079393 0.193716 -0.029427 0.219061 0.771656 -0.597125
0.074168 0.072533 0.055984 -0.385123 -0.220021 0.896254
0.271468 -0.258121 -0.098982 0.398313 0.222013 -0.889976
-0.233485 -0.063396 -0.022444 0.087463 -0.962312 -0.257498
0.371434 -0.255234 -0.057830 0.150310 -0.390007 0.908461
0.002094 0.030125 0.093830 -0.298847 0.000400 0.954301
0.253642 0.276465 0.004262 -0.251037 0.954236 -0.162522
0.271230 0.107945 -0.007752 0.360219 -0.403969 -0.840863
-0.003944 0.173037 -0.054149 0.347227 0.391101 -0.852334
0.478847 -0.120366 -0.089590 0.125390 0.757958 -0.640139
-0.487492 -0.130974 -0.044859 -0.755432 0.122058 -0.643758
-0.054173 0.012909 -0.028447 0.223128 -0.887477 0.403236
0.020696 0.063860 0.076372 0.196894 -0.189005 0.962034
0.094889 0.131260 0.040101 0.035078 0.555478 0.830791
-0.210053 -0.241205 -0.033389 -0.460717 0.155645 0.873793
0.224416 -0.288536 -0.072907 -0.271629 -0.825701 -0.494405
0.356198 0.044509 -0.018291 0.408146 0.401526 0.819874
0.123197 -0.252710 -0.007364 -0.400417 0.912871 -0.079582
0.212353 0.370096 -0.063581 0.198375 -0.159650 -0.967036
0.479694 -0.124434 -0.092151 0.148307 0.607832 -0.780093
0.237834 0.250603 0.019221 -0.215360 0.412227 0.885262
-0.356781 0.259879 -0.028859 -0.561794 0.095156 0.821786
-0.041201 0.112369 0.045508 0.506665 0.570546 0.646350
0.421798 -0.179951 -0.014881 -0.187704 0.540446 0.820174
-0.251807 0.097001 -0.017316 0.338476 -0.936510 -0.091565
0.456067 -0.228198 -0.051568 0.740393 -0.649348 0.173684
-0.350291 -0.052606 0.030323 -0.350430 0.537928 0.766702
0.015053 0.142444 0.073213 0.443456 0.594404 0.670843
-0.083654 0.101351 0.062211 -0.381404 -0.188117 0.905065
0.447034 -0.116415 -0.094156 0.339614 0.443091 -0.829658
-0.436442 0.099961 -0.049009 0.133637 -0.676385 -0.724324
0.043601 -0.076524 0.096995 0.344664 -0.105260 0.932806
-0.062846 -0.015731 -0.001080 0.146473 -0.965947 -0.213291
0.038537 -0.333766 -0.048169 0.334875 0.159456 0.928672
0.365378 -0.029872 -0.019037 0.218153 0.839985 0.496824
-0.060181 0.132513 0.031502 0.325681 0.863644 0.384774
0.484151 0.070434 -0.088131 -0.320875 0.527406 -0.786690
-0.180493 0.013358 -0.072439 -0.125789 0.615789 -0.777805
-0.003153 0.099502 0.073541 -0.441975 0.115776 0.889525
0.145318 -0.005958 -0.063745 -0.347373 -0.847294 -0.401777
-0.401877 -0.168505 -0.094613 -0.400173 0.214786 -0.890915
-0.401471 -0.050776 0.006853 -0.239226 0.346669 0.906968
-0.160531 0.027839 -0.001900 0.209086 0.218592 0.953153
0.097365 0.162303 -0.030675 -0.537106 -0.138432 0.832078
0.006988 0.008048 -0.030087 0.386200 -0.028949 -0.921961
0.344571 0.216237 -0.027212 -0.130997 -0.537009 -0.833343
0.483581 -0.124262 -0.090747 0.303525 0.679152 -0.668300
0.055737 0.091245 0.062189 0.655668 0.561757 0.504509
0.397601 -0.206919 -0.050321 -0.866678 -0.117166 -0.484913
-0.013379 -0.288817 -0.054194 -0.632778 -0.618517 -0.465864
0.073499 0.067077 -0.077404 0.487320 -0.087895 -0.868789
0.006052 0.117960 -0.082038 -0.022275 0.184380 -0.982603
0.224843 -0.221840 -0.074671 0.059651 0.926621 0.371235
-0.107773 0.069901 0.053578 -0.847632 -0.056641 0.527553
0.241705 -0.287681 -0.065332 0.522134 -0.501607 -0.689758
0.264617 -0.058175 -0.080354 0.122869 -0.967967 -0.218958
0.207473 0.188834 -0.009890 -0.152910 0.881167 -0.447396
0.443262 0.093791 -0.051775 0.053640 0.931709 -0.359223
0.109820 -0.239709 -0.081621 -0.726950 0.681909 -0.080897
0.065324 0.089860 -0.084188 0.689764 0.118292 -0.714305
0.281915 0.066579 0.004972 0.186793 0.892951 0.409569
-0.048341 0.061917 0.053510 0.367224 -0.115913 0.922882
-0.261055 0.058353 0.009930 0.164960 -0.975584 0.144997
-0.112016 -0.332889 0.006146 -0.418081 -0.732053 0.537872
-0.078454 0.043054 -0.075977 -0.047400 0.524688 -0.849974
0.128171 0.075185 0.054700 0.654036 0.456605 0.603116
-0.059750 0.130830 0.035421 0.280474 0.915529 0.288340
-0.022039 -0.262683 -0.051242 -0.184930 0.314696 0.931003
0.409983 -0.062985 -0.010601 0.413571 0.618026 0.668583
-0.153148 -0.272749 -0.098973 -0.177477 0.032289 -0.983595
-0.358071 -0.225494 -0.091640 -0.395846 -0.595685 -0.698903
-0.067426 0.085825 -0.079692 0.115004 -0.138158 -0.983711
-0.311231 -0.235302 -0.038443 -0.361104 0.002190 0.932523
-0.059065 -0.264852 -0.106326 0.226768 -0.474285 -0.850664
0.391957 0.026258 -0.032165 0.543635 0.310393 0.779819
0.124784 0.135657 -0.061181 0.429626 0.795205 0.427868
-0.116354 0.072674 -0.023651 -0.284539 -0.470758 -0.835120
-0.005254 0.134196 0.078352 -0.453231 0.612453 0.647675
0.332133 -0.102675 -0.043707 -0.416069 -0.899764 -0.131573
-0.455487 0.104478 -0.059655 0.465493 -0.120637 -0.876791
-0.061428 0.051792 0.065031 0.468161 0.018527 0.883449
0.245148 0.074066 0.005162 0.035764 0.709164 0.704136
-0.175184 0.001895 0.011655 0.502572 -0.205187 0.839833
0.018566 0.132549 -0.079088 0.149142 0.387511 -0.909721
0.079653 0.046033 0.063106 -0.500212 0.253800 0.827873
0.274965 -0.034120 0.006447 -0.447145 -0.332453 0.830383
-0.116079 0.019585 0.028855 -0.875632 -0.312080 0.368612
-0.075134 0.103353 0.055846 0.490640 0.426079 0.760085
0.162061 0.057437 0.014930 0.464629 -0.307755 0.830305
0.203824 0.120147 -0.038319 0.309687 -0.309723 -0.898980
0.093969 0.030913 -0.078801 -0.585041 -0.300671 -0.753209
0.439269 -0.024107 -0.088492 -0.530802 -0.012569 -0.847403
0.127188 0.006734 -0.009527 -0.041000 -0.427669 -0.903005
-0.271280 0.073695 0.004833 -0.040290 0.986219 -0.160462
0.284095 -0.063538 -0.005768 -0.018480 -0.419093 0.907755
-0.029918 -0.265879 -0.052581 -0.425177 -0.182330 0.886555
0.379833 -0.207439 -0.108097 -0.070921 -0.121812 -0.990016
0.373112 0.110842 -0.024830 0.125462 0.991533 0.033482
0.476045 -0.067563 -0.035565 0.223538 0.927323 -0.300171
-0.059446 -0.017461 0.001166 -0.241737 -0.760779 -0.602311
-0.334424 -0.095219 -0.032088 0.892404 -0.449583 -0.038607
-0.105177 0.067193 0.056549 -0.145109 0.233148 0.961554
0.089312 -0.333470 -0.032581 0.486940 -0.741606 0.461422
-0.192804 0.216685 0.023692 -0.680659 -0.403688 0.611342
-0.122982 -0.245696 -0.092490 -0.398542 0.912361 -0.093601
-0.246561 0.191401 0.008622 -0.143626 -0.813059 -0.564187
0.294521 -0.076722 -0.073272 -0.289210 -0.823753 -0.487637
0.472692 -0.199755 -0.017950 0.924725 0.213789 0.314924
0.325219 -0.093860 -0.019394 -0.138750 -0.463491 0.875171
-0.484461 -0.111647 -0.014919 -0.823771 -0.112265 0.555695
0.125082 0.072514 -0.053121 0.597570 -0.647557 -0.472842
0.110145 -0.248418 -0.039850 -0.646843 0.631144 0.428079
0.054743 -0.253303 -0.086663 -0.123432 -0.391256 -0.911967
-0.201640 -0.047893 -0.000087 0.625832 -0.243176 0.741080
0.304683 -0.243446 -0.100462 -0.032074 0.046780 -0.998390
-0.173619 -0.294701 -0.093580 0.035848 -0.482534 -0.875144
0.079764 -0.007469 0.054245 0.564054 -0.477570 0.673624
0.267737 -0.061006 -0.005297 0.235218 -0.616612 0.751307
-0.243189 -0.296431 -0.058648 -0.881470 -0.472239 0.001358
-0.079107 0.142028 0.033363 0.224549 0.868762 -0.441396
0.254286 0.373220 -0.041936 0.019353 0.778637 0.627176
0.079558 0.138009 0.021533 0.050045 0.950704 0.306036
0.155340 -0.242559 -0.031043 -0.001112 0.954930 0.296829
-0.099626 0.190321 0.001761 0.255925 -0.077749 0.963565
-0.465318 -0.087093 -0.043061 0.080352 0.973182 -0.215545
0.267700 0.197276 0.017314 0.023850 0.415724 0.909178
-0.303228 0.111261 -0.002048 -0.106876 0.744648 0.658845
0.345260 -0.075678 -0.006548 -0.292275 -0.349186 0.890306
-0.400194 -0.039684 0.001664 -0.114587 0.493587 0.862115
-0.311887 0.008999 -0.042821 -0.088057 0.973937 -0.209026
-0.018953 0.142014 0.056130 -0.525620 -0.375169 0.763526
0.017398 -0.107523 0.058736 0.429646 0.323503 -0.843060
0.416613 0.087028 -0.040250 -0.110416 -0.935869 0.334601
0.028078 0.086709 -0.077704 0.423007 0.059292 -0.904184
0.349096 0.042123 -0.037419 -0.204362 0.098931 -0.973884
0.464611 -0.127683 -0.096251 0.140622 0.451691 -0.881022
-0.240230 -0.221523 -0.050104 0.073245 0.925792 0.370871
-0.371086 -0.074688 -0.077455 0.140035 -0.804584 -0.577091
-0.152025 0.020985 -0.002476 0.201336 0.484740 0.851170
-0.276590 -0.012087 0.015038 -0.498919 0.062381 0.864401
-0.265958 0.117649 -0.012610 -0.935547 0.353078 -0.009346
0.227135 0.371679 -0.060230 0.308838 -0.101523 -0.945681
-0.308489 0.011163 -0.013579 -0.179316 0.933911 0.309284
-0.097342 -0.274827 -0.098422 -0.141050 -0.112299 -0.983613
0.121752 0.125331 0.014727 0.650115 0.739494 0.174638
-0.054136 0.141212 -0.067061 -0.267828 0.110753 -0.957080
-0.368145 -0.158678 -0.069766 0.167217 0.903835 0.393854
-0.278153 0.213455 -0.009321 -0.105936 -0.582284 -0.806054
0.009487 -0.287856 -0.061726 0.061007 -0.201658 -0.977554
0.041174 -0.082378 0.087794 0.474456 0.347620 -0.808735
-0.114600 0.063001 -0.027570 -0.772377 0.018875 -0.634884
0.283338 0.324607 -0.010071 0.951036 0.307591 -0.030312
-0.016119 0.098928 -0.075383 -0.064194 0.054852 -0.996429
0.236037 0.260971 0.010514 -0.768847 0.457880 0.446341
-0.305815 0.111782 -0.020994 0.347484 0.547740 -0.761075
0.168450 0.002839 -0.080010 0.360920 -0.010869 -0.932533
-0.279196 -0.049025 -0.080545 0.144957 -0.207681 -0.967396
-0.279012 -0.236677 -0.033437 0.042546 -0.312371 0.949007
0.236398 -0.227207 -0.092810 -0.197410 0.492754 -0.847480
-0.174804 -0.028403 0.001485 0.100858 -0.448327 0.888161
-0.395838 -0.038588 0.001709 -0.158492 0.564456 0.810105
-0.000178 0.039731 -0.060614 0.548989 -0.612097 -0.569164
0.127000 0.020352 0.037413 0.490036 -0.666365 0.561981
-0.167971 -0.021922 0.003013 0.150605 -0.154633 0.976426
0.428551 -0.094109 0.004029 -0.418894 -0.492349 0.762968
0.027956 -0.344681 -0.054307 0.309303 -0.836100 -0.453065
-0.487409 -0.133083 -0.037103 -0.597693 -0.226095 0.769184
0.027948 -0.096071 0.082482 -0.011788 -0.416894 0.908879
0.143861 -0.281943 -0.027786 0.491341 -0.355871 0.794946
0.229926 0.028873 -0.016624 0.093616 0.652965 0.751581
-0.068716 0.138483 0.002662 -0.405712 0.873928 0.267669
0.087118 0.062847 -0.072245 0.406679 0.359147 -0.840015
0.049925 -0.006641 0.089054 0.775780 0.498620 0.386708
-0.460112 -0.168988 -0.076885 -0.605635 -0.410849 -0.681476
0.203893 0.119784 -0.011964 -0.334830 -0.466619 0.818631
0.156447 -0.236580 -0.062337 -0.036638 0.973743 0.224682
-0.424843 -0.146059 -0.001040 0.315226 0.093157 0.944433
0.487213 -0.094586 -0.026138 0.826645 0.540505 0.156567
0.303675 -0.220657 -0.045701 -0.066404 0.805363 0.589052
-0.191132 0.003982 0.021454 -0.154441 -0.690890 0.706271
-0.343023 -0.049531 0.022624 0.830735 0.311898 0.461085
-0.098486 -0.011036 0.017717 -0.679244 -0.722271 -0.130203
-0.060003 -0.305825 -0.046576 0.786607 0.611641 0.084532
0.337359 -0.036935 -0.002188 0.308766 0.324241 0.894165
0.426016 -0.120220 -0.096079 -0.469508 -0.448129 -0.760751
-0.081747 0.104960 0.062370 0.116745 0.805793 0.580575
-0.202904 0.226667 0.009707 0.132045 -0.549094 -0.825264
0.234232 -0.023296 0.001902 -0.165884 -0.183381 0.968945
0.073929 0.026706 0.062235 -0.094212 -0.323595 0.941494
0.282428 -0.256637 -0.038908 0.167406 -0.292414 0.941525
0.421481 -0.072052 -0.007162 0.125475 0.497283 0.858467
-0.273119 -0.233215 -0.097761 -0.014283 0.128600 -0.991594
0.054013 0.160997 0.019678 0.136645 0.010494 0.990565
0.045710 -0.221751 -0.080193 0.140786 0.846345 0.513691
0.007692 0.086348 0.098888 -0.760378 -0.604353 0.237874
0.161943 0.081718 -0.028774 0.153645 0.066974 0.985854
0.065757 -0.253872 -0.041259 -0.609396 -0.054314 0.791003
-0.293444 -0.192730 -0.091800 0.641776 0.573618 -0.509005
0.438257 -0.097930 0.000234 0.425734 -0.182708 0.886210
0.026656 -0.233321 -0.085397 -0.206507 -0.630335 -0.748354
0.063600 -0.264472 -0.034202 -0.483107 0.609071 0.628999
0.231919 -0.290078 -0.056730 0.239306 -0.930628 0.276883
0.255496 0.067054 -0.014110 0.341958 0.005408 -0.939700
0.383630 -0.182258 -0.107858 0.478891 -0.006299 -0.877852
-0.328647 -0.060453 0.003006 0.067475 -0.612755 0.787387
0.358240 -0.043205 -0.086481 0.025718 0.583079 -0.812009
0.481398 -0.160697 -0.085962 0.702397 0.137898 -0.698300
-0.440122 -0.125216 -0.084616 0.347381 0.868505 -0.353590
0.180130 0.022642 -0.018250 -0.719981 0.242619 0.650202
0.480948 -0.095392 -0.011353 0.572077 0.754016 0.322781
0.282370 0.002957 -0.011074 0.429473 0.657001 0.619599
0.196344 0.002535 -0.081994 0.103080 0.213795 -0.971425
0.278650 0.333179 -0.010227 -0.013536 0.421278 0.906831
-0.153400 0.179420 -0.006262 0.351988 0.823706 0.444536
0.247207 0.125928 0.007912 -0.357920 0.203403 0.911329
-0.086863 0.095370 -0.081972 -0.308922 0.607883 -0.731468
-0.101846 0.019559 -0.027196 -0.225471 -0.277724 0.933827
0.124881 0.200269 0.003083 -0.264888 -0.107785 0.958236
0.074913 -0.291148 -0.003408 -0.325137 0.532116 0.781754
-0.034389 -0.323214 -0.040386 0.277116 0.845502 0.456435
0.378032 0.109968 -0.028291 0.153259 0.981850 -0.111720
-0.235376 0.296175 -0.027745 0.592259 -0.191727 -0.782605
-0.075596 -0.299321 -0.044132 -0.124665 0.568346 0.813291
0.235280 -0.235072 -0.038937 0.197103 0.748819 0.632788
-0.386057 0.040735 -0.024760 -0.324392 0.197283 0.925121
0.427235 -0.094009 0.003324 -0.525430 -0.360698 0.770597
-0.424299 -0.204089 -0.075130 -0.096824 -0.876470 -0.471619
0.310719 -0.008552 -0.062178 0.229571 0.831535 -0.505813
-0.222657 -0.270400 -0.097868 0.345642 0.227120 -0.910466
0.086569 -0.286973 -0.003287 -0.376224 0.517733 0.768380
0.194504 -0.288343 -0.039858 0.262661 -0.383799 0.885273
-0.305548 -0.077071 -0.043836 0.092418 -0.900401 -0.425131
0.313713 -0.077489 -0.010021 -0.188367 -0.315223 0.930136
-0.110537 0.106135 0.024531 -0.808492 0.533273 0.248918
-0.050999 -0.267459 -0.103560 0.312333 -0.525199 -0.791590
0.490811 -0.159388 -0.066794 0.992402 -0.001642 -0.123027
0.063436 0.098996 0.053793 -0.237638 0.353036 0.904928
-0.092937 -0.333026 -0.001700 0.180288 0.556467 0.811074
-0.260128 0.116085 -0.001678 -0.222637 0.869225 0.441453
-0.147066 -0.271135 -0.100505 -0.015625 -0.310949 -0.950298
0.474814 -0.102425 -0.063792 0.702332 0.555685 -0.444910
-0.042429 0.066798 0.052814 0.006529 -0.252586 0.967552
0.268568 -0.304931 -0.057693 -0.688863 -0.311725 0.654442
-0.435648 -0.139074 0.012015 0.153341 -0.988104 0.011719
0.270959 -0.223771 -0.047917 -0.257036 0.833552 0.489003
0.063380 -0.277067 -0.075005 -0.617764 -0.452287 -0.643276
-0.092311 -0.280279 -0.034220 0.348890 0.742423 0.571913
0.193467 -0.038935 -0.020566 -0.654019 -0.579565 0.486172
0.082275 0.172775 -0.013733 0.238853 -0.271342 0.932375
-0.221967 0.111823 -0.033718 -0.265857 0.103501 -0.958440
0.398800 -0.084762 -0.099986 0.141557 0.166303 -0.975861
-0.350823 0.257617 -0.023913 -0.168119 0.559614 0.811522
0.284669 -0.062387 -0.086545 0.055392 -0.854708 -0.516146
0.228119 0.238409 0.021651 -0.335449 0.368575 0.866964
-0.104422 0.058252 -0.050445 -0.687346 0.389596 -0.613001
0.334064 -0.199581 -0.095452 0.089179 0.981750 -0.167970
-0.241763 0.068281 0.020828 -0.459955 -0.369986 0.807188
-0.382658 -0.088152 -0.055701 0.276790 -0.897072 -0.344455
-0.201636 -0.054653 -0.021120 0.389899 -0.912942 0.120477
-0.017700 0.176895 -0.050057 -0.239310 0.692518 -0.680550
0.083231 0.012694 0.057338 0.239833 -0.214714 0.946773
-0.458153 -0.100434 0.005029 -0.491756 0.160878 0.855742
-0.369296 -0.055357 0.012144 -0.115884 0.152895 0.981424
0.012824 0.141337 -0.075329 0.002411 0.119705 -0.992807
-0.057043 -0.361000 -0.011930 -0.644537 -0.072768 0.761102
-0.470579 -0.111722 -0.002010 -0.413733 0.045530 0.909259
0.167122 -0.276793 -0.030322 -0.020977 -0.407582 0.912928
0.094887 -0.013642 -0.006496 0.915225 -0.334233 -0.225058
-0.009779 -0.359874 -0.028948 0.475614 -0.460841 0.749278
-0.069752 0.128702 0.044383 0.221761 0.443810 0.868248
0.190869 0.043779 -0.030733 0.202565 0.958248 0.201813
0.120957 -0.294104 -0.026736 0.016589 -0.092227 0.995600
