0.425926 0.282501 0.663864 
0.430288 -0.131448 -0.157496 
-0.102983 -0.201070 0.548006 
-0.352338 0.286368 0.868985 
0.005056 -0.286440 -0.920166 
0.197559 -0.145504 -0.928332 
-0.366371 -0.287654 -0.298068 
0.368844 -0.284191 -0.533622 
0.304964 -0.289636 -0.784232 
-0.352408 0.111414 0.779508 
0.265757 -0.198876 -0.439818 
-0.247785 -0.284425 0.635024 
-0.508856 0.224678 0.488205 
0.122080 -0.204963 -0.781128 
0.201487 -0.203884 0.485760 
-0.430955 -0.128273 -0.261477 
0.354646 -0.043783 0.705720 
0.357221 -0.286670 -0.656478 
-0.431067 0.107114 0.632684 
-0.184965 -0.287753 -0.880593 
0.336635 -0.288602 -0.725796 
0.369044 0.287472 0.849449 
-0.353593 -0.213806 -0.781948 
-0.083945 -0.287765 -0.911499 
0.138698 0.196336 0.927744 
0.202066 -0.219514 0.717160 
0.366362 -0.287649 0.012706 
0.342261 0.283898 -0.835037 
-0.269171 -0.197570 -0.514042 
-0.436719 0.037483 0.557040 
-0.433033 -0.050358 0.496607 
0.366071 -0.287981 -0.061323 
-0.354809 -0.286431 0.460414 
-0.366813 -0.286938 0.258017 
-0.313087 -0.288262 0.566761 
0.350986 -0.134406 0.300222 
0.192277 -0.189326 0.554283 
0.431050 -0.127364 0.151200 
0.448523 0.285250 0.723337 
0.010722 -0.188306 -0.844573 
0.190966 -0.085747 0.704026 
0.430899 -0.128529 -0.244296 
-0.464505 0.132782 -0.573643 
-0.367805 0.288118 -0.854108 
0.149493 -0.222533 -0.089203 
-0.067732 -0.117313 0.699957 
-0.430314 -0.128377 -0.540237 
0.195651 0.058062 -0.939741 
0.267498 -0.114068 -0.819740 
-0.224035 0.015971 -0.927068 
-0.426228 0.287440 0.697310 
-0.426298 0.207048 -0.613020 
-0.272688 -0.196096 0.034317 
0.492397 0.286938 -0.527610 
0.353380 0.151630 -0.851568 
-0.199210 -0.075289 0.794598 
0.354486 -0.235773 0.574292 
0.431427 -0.126005 -0.477331 
0.093157 0.008548 0.853530 
0.277287 -0.153808 0.574252 
0.203832 -0.013631 -0.934963 
0.274563 -0.228350 -0.862496 
-0.454833 0.082326 -0.613645 
-0.265269 -0.199048 -0.399068 
-0.473174 0.284207 0.643695 
-0.184575 -0.284990 0.663611 
-0.436621 -0.097084 0.140937 
0.478097 0.289706 -0.221148 
0.009170 -0.289132 0.684076 
0.049753 -0.207675 -0.788953 
0.425805 -0.146466 -0.562501 
-0.399754 0.001511 -0.370495 
0.070160 -0.273632 0.698797 
0.364965 -0.289211 -0.129921 
0.322720 -0.230725 -0.815182 
0.490205 0.288016 0.239501 
-0.368407 -0.285195 -0.438642 
0.409485 0.164768 0.724413 
-0.350502 0.053679 -0.773823 
0.366520 -0.287456 0.082272 
0.434330 -0.084596 0.431649 
-0.430641 0.025365 -0.704619 
-0.397158 0.103624 0.573715 
0.271691 -0.196013 0.345783 
0.261481 -0.200382 0.031501 
-0.378094 -0.081196 0.115893 
-0.465932 0.129737 0.331774 
0.398920 -0.001999 0.334228 
0.249108 0.215879 0.848944 
0.200425 -0.216158 0.244170 
0.445931 -0.011462 0.414481 
-0.411698 0.072895 -0.325499 
0.423341 0.160592 -0.567635 
-0.443475 0.276458 0.760037 
-0.457661 0.283482 -0.124194 
0.112891 -0.224913 -0.369624 
0.410850 0.067631 -0.420902 
0.423279 0.216565 -0.642917 
-0.446169 -0.030060 0.250766 
-0.434313 -0.110545 -0.175329 
0.198540 -0.272749 0.672723 
0.422191 -0.147649 0.425743 
-0.217300 -0.188255 -0.772384 
-0.264091 0.282724 -0.931312 
0.473690 0.288943 0.061463 
0.208078 -0.214738 0.079748 
0.470416 0.195206 -0.603484 
-0.376537 -0.273846 0.162860 
-0.392392 -0.033227 -0.424830 
0.513023 0.246431 -0.186101 
-0.271642 -0.196545 0.126376 
-0.272729 -0.195083 -0.596268 
0.365239 -0.288837 0.153559 
0.254590 -0.289706 -0.836431 
0.385687 0.098232 -0.810857 
-0.326711 0.052780 0.777281 
-0.138528 0.287430 0.969787 
0.134365 -0.213653 0.476789 
-0.213956 0.079460 -0.933152 
-0.430855 0.200089 -0.437701 
-0.084712 -0.219556 -0.715642 
0.468396 0.288630 0.473213 
-0.513272 0.214661 0.283540 
0.512300 0.256957 -0.122068 
0.479654 0.289506 -0.074684 
-0.367243 -0.286687 -0.374904 
0.376400 0.076286 0.626720 
0.351785 0.046728 -0.770695 
-0.452337 0.136298 0.559671 
0.072280 -0.226114 -0.428235 
0.429338 0.210952 0.455155 
0.372247 -0.162541 -0.777846 
0.270580 0.278757 -0.932202 
0.436951 0.072644 0.583818 
0.423265 -0.161498 0.222656 
-0.364907 -0.288237 0.332759 
0.445041 -0.039788 -0.038152 
-0.364421 -0.288090 -0.574615 
0.353910 -0.174515 0.633883 
-0.201455 -0.010891 0.820695 
-0.082281 0.181831 0.930596 
-0.512844 0.212088 0.368071 
0.380179 -0.075435 0.284765 
-0.004563 -0.238072 0.734572 
-0.405690 0.282638 0.817107 
0.442724 -0.051041 0.352616 
0.457457 0.211603 -0.778536 
-0.233267 -0.209149 -0.107658 
0.360140 -0.110519 0.665477 
-0.334817 -0.154751 0.025783 
-0.428733 0.185296 -0.374660 
0.454108 0.038712 0.348026 
-0.443824 -0.049131 -0.381370 
0.373569 -0.278071 -0.361924 
-0.492529 0.287154 0.112613 
-0.248984 -0.127564 0.635324 
0.376686 0.281365 0.779080 
0.310410 0.025123 -0.816595 
-0.493554 0.286571 0.037987 
-0.332670 -0.118907 -0.722159 
0.156663 -0.121554 0.786354 
0.023883 -0.226484 0.296982 
-0.428113 0.180981 0.236205 
-0.353798 -0.148464 -0.811443 
-0.380295 -0.262144 0.399012 
0.187017 0.285253 0.961427 
-0.513288 0.233375 0.079781 
-0.460015 0.095799 0.408408 
0.427443 0.228450 0.517954 
-0.400696 -0.229821 0.206446 
0.383906 0.196180 0.780974 
0.141863 -0.177471 0.605729 
-0.464368 0.288341 -0.614949 
0.420325 0.128412 -0.289608 
0.290207 0.207080 0.930373 
-0.270045 -0.197200 -0.321578 
-0.068485 0.285088 0.949198 
-0.275718 -0.195669 0.696598 
-0.463855 0.112720 0.240974 
0.309401 -0.176635 -0.482634 
-0.183541 -0.218763 0.121745 
0.435099 0.233584 0.383257 
-0.448053 0.002429 0.407646 
0.131974 -0.258245 0.705409 
-0.470697 0.164013 0.000551 
-0.415574 0.122098 0.455719 
-0.340388 -0.118256 0.518669 
-0.111992 0.277123 -0.928416 
-0.428475 0.271148 -0.675177 
-0.134028 0.190040 0.876796 
-0.438804 0.251586 0.068263 
-0.372007 0.071275 0.634418 
-0.324540 -0.164766 0.290117 
0.038446 -0.226465 -0.486637 
0.431009 0.005403 0.558578 
0.205120 0.185659 0.905089 
-0.071787 -0.224662 -0.649482 
-0.414735 0.091982 0.281009 
-0.417789 0.111653 0.179328 
-0.426316 -0.149541 0.104247 
-0.438890 -0.082537 0.204786 
0.307251 -0.178017 -0.388168 
-0.443761 0.020770 -0.642322 
-0.513288 0.228220 -0.113617 
-0.143209 -0.246731 -0.921386 
0.052105 0.172289 -0.914072 
0.467590 0.287252 -0.704863 
-0.057266 -0.198042 -0.955408 
-0.327366 -0.034703 -0.786661 
0.221063 -0.142224 0.633116 
-0.455181 0.043904 0.262542 
0.398678 -0.004379 -0.000588 
-0.141679 -0.116441 0.690756 
-0.386379 0.222486 -0.867648 
-0.390818 -0.019715 0.445108 
-0.450675 0.048989 0.464114 
0.397939 -0.236185 -0.144995 
0.466934 0.289387 -0.637262 
0.264012 -0.279991 0.630097 
0.302692 -0.093584 0.732408 
0.457243 0.149315 -0.656125 
0.323394 0.246989 -0.913907 
0.051224 -0.161514 -0.963400 
-0.385952 -0.259100 -0.231381 
0.445578 -0.035451 0.106048 
-0.437516 -0.077945 -0.579488 
-0.426019 -0.100279 -0.653238 
0.115622 0.040197 -0.916914 
0.441060 -0.068860 -0.140193 
-0.416548 -0.162472 -0.631747 
-0.393854 -0.027254 0.209516 
-0.069561 -0.255556 0.716606 
0.286634 -0.172881 0.505294 
0.321619 -0.157549 -0.660255 
0.498700 0.283647 -0.282025 
-0.196918 -0.208284 -0.708716 
-0.041765 0.162253 -0.914072 
0.274986 0.115446 0.782252 
-0.303456 -0.095443 -0.792811 
-0.428696 0.185025 -0.148490 
-0.400723 0.210957 0.840998 
0.245140 -0.205737 0.135101 
-0.332454 0.164740 0.824272 
0.351116 0.093649 0.691585 
-0.472916 0.288811 -0.200205 
0.401504 -0.209021 0.448194 
-0.435455 0.166927 0.659822 
0.087593 -0.184760 -0.842527 
-0.452130 0.280305 -0.528572 
0.460357 0.084692 -0.235048 
0.080091 -0.195620 0.569337 
-0.355392 -0.019055 0.716084 
-0.370915 -0.065709 0.497471 
0.411856 0.073817 -0.188271 
-0.445564 -0.033120 -0.527273 
-0.442157 0.146057 -0.714192 
-0.386042 -0.044790 -0.597695 
0.263389 -0.199706 -0.325060 
-0.448179 -0.014795 0.037236 
-0.499571 0.251217 -0.661663 
-0.463725 0.162895 0.501915 
-0.473437 0.205697 0.418811 
0.402980 -0.155023 -0.708230 
-0.402629 0.019269 -0.522655 
0.224103 0.070069 -0.879094 
0.194259 0.145980 0.837821 
0.321105 0.253027 0.816821 
-0.040384 -0.226458 0.273242 
-0.293639 0.269523 0.929762 
0.512196 0.257743 -0.464172 
-0.270863 -0.196870 0.276572 
0.248701 -0.022346 0.722486 
0.422721 0.288834 -0.761120 
0.106244 0.195360 -0.965353 
-0.414329 0.151244 -0.641420 
0.387255 -0.039614 0.427747 
0.427176 -0.146050 0.086233 
-0.273004 -0.195948 -0.174638 
-0.447728 -0.018551 -0.040599 
-0.328208 -0.022381 -0.859017 
-0.331299 0.260197 -0.907337 
-0.068873 -0.040274 0.762481 
0.036336 -0.192299 0.765435 
0.374703 -0.276510 -0.276944 
0.422096 -0.166994 0.023494 
0.315002 -0.172602 0.098773 
0.026826 -0.226507 -0.009343 
0.392259 -0.034134 0.216704 
-0.095709 0.117299 -0.966749 
0.405792 0.158342 -0.792339 
0.162178 -0.221269 -0.562994 
-0.439619 -0.060975 0.405133 
-0.183234 -0.218807 -0.305475 
0.324336 -0.164859 -0.327477 
-0.400087 0.002972 0.085026 
0.413573 -0.195564 0.168138 
-0.139890 -0.035972 0.827353 
-0.008658 -0.144483 0.671773 
-0.204766 -0.164745 0.606375 
0.435536 -0.103810 -0.408768 
0.034539 -0.115823 -0.909326 
0.269069 0.021347 -0.904109 
-0.375712 0.127608 0.664001 
0.205257 -0.206641 -0.912152 
-0.394053 -0.026220 -0.111767 
-0.424840 -0.155132 0.207154 
0.123235 0.126618 -0.961557 
-0.428196 0.181550 0.071800 
0.400203 -0.231441 0.005066 
-0.248752 -0.047188 -0.855624 
-0.185051 -0.217562 -0.614538 
0.187608 -0.157463 -0.842325 
-0.385320 -0.057786 -0.533460 
0.513288 0.210150 -0.077861 
0.312618 0.008987 0.691902 
0.312546 -0.174427 -0.258384 
0.291327 -0.186675 -0.577610 
-0.026154 -0.152780 -0.888577 
0.436621 0.240347 0.088236 
-0.369674 -0.283407 0.098053 
0.062063 0.180330 0.931867 
0.446213 0.140570 0.597147 
-0.341880 0.005008 0.651174 
-0.001444 -0.225835 0.355312 
0.029654 0.238530 -0.929713 
-0.504970 0.207410 -0.613108 
0.509553 0.268880 -0.390273 
0.138014 -0.223439 0.234300 
0.411210 0.069806 0.306651 
0.453394 0.028238 -0.394415 
-0.415168 0.063905 -0.756843 
-0.004015 -0.023225 0.776786 
0.033143 0.022144 0.802688 
-0.444676 0.091016 -0.681018 
-0.005033 -0.222305 -0.700538 
-0.407742 0.140821 -0.785990 
-0.311530 -0.175238 -0.233163 
-0.183013 -0.216002 0.403049 
-0.109921 -0.116704 0.797975 
0.401439 -0.112458 0.580808 
0.420620 0.144532 0.428091 
-0.194073 -0.034401 -0.887115 
0.110311 -0.119985 -0.895365 
-0.477957 0.289682 -0.265731 
0.440856 -0.070101 0.050484 
0.160200 0.134560 -0.906193 
0.251566 -0.076381 0.682717 
-0.374789 -0.089719 0.188980 
-0.170800 -0.138185 0.774588 
0.176073 0.207747 -0.972448 
0.395129 -0.241790 0.122274 
-0.260595 -0.200691 -0.040992 
-0.438332 0.249385 -0.304522 
-0.312385 -0.174606 -0.077561 
0.043201 0.083751 0.835207 
-0.506302 0.274595 0.377812 
-0.310928 -0.175814 0.212037 
-0.376397 0.252451 -0.774120 
0.107348 -0.225117 -0.207817 
-0.414075 -0.194498 -0.167984 
-0.201608 -0.091490 0.695109 
0.457989 0.084569 0.423194 
-0.398411 -0.235215 -0.347819 
0.431836 -0.045835 0.509926 
-0.392345 -0.176323 0.549301 
-0.466641 0.133718 0.088468 
0.482687 0.287521 0.544543 
-0.052358 -0.226370 -0.041338 
0.433567 -0.114577 -0.019253 
-0.114311 0.130513 0.902765 
0.429119 0.188762 -0.508534 
0.091124 -0.219270 0.743110 
0.321431 -0.167473 -0.085872 
0.190348 0.288748 -0.943144 
0.180845 -0.084950 -0.940985 
0.372235 -0.095703 0.224587 
0.398632 0.039172 0.676518 
0.475001 0.200535 -0.464067 
-0.307384 -0.122168 0.586379 
-0.436607 0.240231 0.131947 
0.513272 0.234927 0.289938 
-0.403796 0.043630 -0.591206 
0.413859 0.058829 -0.758263 
-0.390923 -0.183800 -0.722679 
0.427264 0.175168 -0.349179 
0.513025 0.213704 0.353718 
0.121648 -0.217074 -0.718061 
-0.169122 0.274181 -0.971979 
-0.255255 -0.173909 0.551806 
0.355627 -0.118635 0.434503 
0.277526 -0.099747 -0.890954 
0.092111 -0.142824 0.787902 
-0.031474 0.113208 -0.973956 
0.068803 -0.226189 -0.057379 
-0.462983 0.105388 -0.303346 
0.030563 -0.226493 0.133381 
0.447788 0.274127 -0.149338 
0.370741 -0.251965 0.501529 
0.366060 0.044020 0.731529 
-0.427455 0.176442 0.137028 
-0.456855 0.056522 -0.251096 
0.018835 0.159985 -0.974433 
0.398251 0.124761 -0.694084 
0.445706 0.271443 -0.018532 
0.452543 0.021210 -0.232452 
0.391018 -0.098116 -0.766330 
0.303682 0.187286 -0.891296 
0.430971 0.200919 -0.083602 
0.468538 0.148025 0.071833 
-0.503257 0.280163 -0.060870 
0.485187 0.207424 -0.708056 
0.366518 -0.281702 0.404041 
0.465447 0.124515 -0.334572 
-0.421375 0.135338 -0.253074 
-0.024504 0.189533 0.889295 
-0.267389 0.121575 -0.909442 
-0.374466 -0.090070 -0.797096 
0.076626 0.109829 -0.914042 
-0.019895 -0.135094 -0.968932 
-0.437328 0.244702 -0.237089 
0.264832 0.242922 -0.865580 
-0.337836 -0.151109 -0.291600 
-0.412197 -0.199734 0.142008 
0.379398 -0.077840 0.154326 
0.417873 0.112225 0.047402 
0.405204 0.033104 -0.498441 
0.172696 -0.220199 -0.399646 
-0.455948 0.049640 0.176676 
0.432689 -0.119462 -0.318720 
-0.168199 -0.019885 -0.947855 
-0.150457 -0.205628 -0.764722 
-0.391971 -0.035226 -0.005494 
-0.133626 -0.220827 -0.668710 
0.206168 -0.215091 -0.471075 
0.315802 -0.147770 0.694254 
-0.164044 -0.221134 -0.536702 
0.352141 -0.132675 -0.387178 
0.423472 0.149306 -0.044659 
0.425126 0.254094 0.578535 
0.419709 0.126460 0.358120 
-0.496520 0.207577 -0.175893 
-0.175130 0.247984 -0.903851 
-0.316645 -0.170541 -0.556626 
-0.114590 -0.224820 0.153368 
0.083447 -0.225877 0.041806 
0.464257 0.152527 0.476534 
0.271379 -0.190688 0.438949 
-0.473837 0.223537 0.700552 
0.230029 -0.209913 -0.041145 
-0.125302 -0.224229 -0.082363 
-0.427485 -0.119221 0.438133 
0.349661 -0.136217 -0.135117 
0.409113 0.244138 -0.710015 
-0.459458 0.077489 -0.184218 
-0.510343 0.258119 -0.564245 
-0.380293 -0.268682 -0.164261 
-0.383237 -0.066004 -0.369984 
-0.508837 0.271260 -0.321151 
-0.307544 -0.125544 0.713360 
-0.003673 -0.226519 -0.430108 
-0.323592 -0.070489 0.621470 
0.280113 0.147237 0.853269 
-0.436582 -0.097751 -0.323163 
0.305569 0.096930 -0.828504 
0.336105 0.135952 0.737205 
-0.217670 0.050439 0.840387 
-0.350063 -0.135006 0.342072 
0.445092 -0.037882 0.287370 
0.370717 -0.098764 -0.327684 
0.373202 -0.277832 0.310337 
0.397212 -0.011753 0.156197 
-0.128913 0.206843 0.983071 
-0.022696 -0.226521 0.202265 
-0.099479 -0.225403 -0.538624 
-0.328407 -0.161012 -0.143382 
0.438278 -0.086377 0.200661 
0.395260 -0.020993 0.069483 
-0.454833 0.040227 0.080443 
0.395789 -0.018490 -0.093337 
0.464650 0.119118 0.298574 
0.422581 0.143386 -0.226289 
-0.382175 0.261866 0.739675 
0.419042 -0.177943 -0.288769 
0.369174 -0.284133 -0.463128 
-0.156263 -0.221664 0.332034 
-0.044045 -0.208765 -0.785718 
-0.414271 0.088963 0.065888 
0.420174 0.127336 0.250248 
-0.021115 -0.083711 0.733463 
0.382075 -0.069608 -0.176714 
-0.402485 0.161944 0.604016 
-0.120477 0.256762 0.913482 
0.508142 0.227404 0.498582 
-0.312553 -0.174380 -0.467293 
-0.296693 0.094139 0.818410 
0.077653 0.031008 -0.969264 
0.405660 0.043177 0.392044 
-0.291722 -0.046984 0.675435 
-0.244057 -0.147572 0.742408 
-0.396535 -0.237860 0.307099 
-0.467592 0.140848 -0.208217 
0.263538 -0.196743 -0.638685 
-0.355834 -0.064642 0.560398 
0.421673 -0.162906 0.360469 
-0.398299 -0.002345 -0.775540 
-0.513288 0.216204 -0.384921 
-0.076563 -0.180225 -0.851824 
0.117837 0.064042 0.816147 
0.415556 0.101195 0.673283 
-0.359494 0.035149 -0.834121 
0.189074 0.209016 0.976120 
0.394860 -0.022488 -0.260992 
-0.342900 0.155616 -0.860739 
-0.206340 -0.206236 0.464056 
0.278579 -0.023750 0.779615 
0.415212 0.237800 0.824269 
-0.365611 -0.109615 -0.152743 
0.027095 -0.182849 0.606389 
-0.226292 0.038445 0.769231 
0.323397 -0.128092 -0.731629 
0.137882 -0.027201 -0.956712 
0.065689 -0.051162 0.755281 
-0.419695 0.124136 -0.006740 
-0.122401 0.051330 0.866823 
-0.018654 0.099547 0.844359 
0.408700 0.192359 0.602478 
0.062431 0.158091 0.871246 
-0.417315 0.108755 -0.386927 
0.199289 -0.214057 -0.642231 
0.400191 0.003788 -0.191197 
0.432833 -0.093807 -0.607826 
0.090110 -0.225733 -0.143819 
0.450542 0.005362 0.203699 
-0.456678 0.055090 -0.379757 
0.455397 0.044673 -0.301605 
0.437235 -0.033420 -0.642629 
0.369053 0.004327 0.591018 
-0.001358 -0.102115 0.812998 
-0.474834 0.197245 0.189064 
-0.173338 -0.220130 -0.134903 
-0.471938 0.173076 -0.329176 
0.419965 -0.124594 0.491715 
-0.032831 -0.226484 -0.314599 
0.513288 0.221652 -0.329622 
-0.413655 -0.193798 -0.544141 
-0.422463 0.258614 -0.829097 
0.449936 -0.000432 -0.466745 
0.237215 -0.207954 -0.546514 
0.446982 0.273089 0.193466 
-0.495664 0.207410 0.550214 
-0.166566 -0.220862 0.201147 
-0.354588 -0.128814 -0.350204 
-0.447005 0.273112 -0.459271 
-0.350403 0.220274 0.893655 
-0.039548 -0.150340 0.788713 
-0.313261 -0.115019 -0.861803 
-0.235886 0.252976 -0.881305 
-0.053153 0.284486 -0.982028 
-0.429514 0.190730 -0.084062 
0.144066 -0.222961 -0.457683 
-0.349461 -0.136270 -0.502359 
-0.513288 0.207536 -0.258328 
-0.330950 -0.280983 -0.753901 
-0.409083 -0.209204 -0.263709 
-0.251687 -0.277737 -0.849716 
0.442455 0.270727 -0.581220 
0.412885 0.119974 -0.619648 
-0.167179 -0.203222 0.515204 
-0.110834 -0.224992 -0.154942 
0.491311 0.207640 -0.253592 
-0.342199 0.235490 0.783603 
0.346417 0.222635 0.897373 
0.458026 0.207106 0.688718 
-0.164228 0.154168 -0.951661 
0.021550 0.207159 0.998747 
-0.205947 -0.215133 -0.382541 
-0.052655 -0.170634 0.630204 
-0.412813 0.083325 -0.534329 
0.513286 0.215391 0.224299 
-0.228551 0.185115 -0.929857 
-0.407245 0.058014 0.415796 
0.173628 -0.220100 0.164977 
-0.256858 -0.197173 -0.660987 
0.431002 0.201119 0.008787 
-0.388164 -0.255005 -0.523157 
-0.204578 -0.215386 0.261673 
0.462068 0.098230 -0.043342 
-0.467745 0.142017 -0.060933 
0.128850 -0.057289 0.742383 
0.344009 -0.117266 -0.831186 
0.216473 -0.203708 -0.708930 
-0.354918 -0.141288 0.654930 
0.215852 -0.211563 0.379020 
0.501396 0.282113 0.137558 
-0.408518 -0.200884 0.399481 
-0.138949 0.046126 -0.957311 
-0.136060 -0.216358 0.455452 
-0.063132 -0.226254 -0.387766 
0.199237 -0.100089 -0.870695 
0.426105 0.010038 -0.713801 
-0.077426 -0.095654 -0.966761 
0.392134 0.035872 -0.666014 
0.466818 0.135280 0.206534 
-0.487209 0.288439 0.306799 
-0.267840 -0.187384 0.475376 
-0.465872 0.127766 -0.145813 
0.407412 -0.208835 -0.576660 
0.408179 0.284002 -0.824625 
-0.391495 -0.036830 -0.310660 
0.398504 0.011193 -0.589328 
0.303424 -0.168080 -0.859591 
0.110981 -0.224987 -0.518295 
0.078753 -0.220030 0.446595 
0.082938 -0.076736 0.819503 
0.177531 -0.219544 0.307153 
0.410510 0.099643 0.474028 
-0.403094 0.019943 -0.065899 
-0.172225 -0.096835 -0.943176 
0.462112 0.098560 -0.397861 
-0.423135 -0.162839 -0.321969 
-0.345636 0.159511 -0.797103 
0.511840 0.222454 0.422181 
0.354756 -0.128726 -0.046661 
0.442773 0.264636 0.275378 
0.412730 0.083967 -0.540874 
-0.391441 -0.239547 -0.618874 
-0.244013 0.033564 -0.866584 
0.353731 -0.130160 -0.453456 
-0.362841 -0.265921 -0.697835 
-0.351439 0.176286 0.738569 
0.132683 -0.222486 -0.636391 
-0.442178 -0.061088 -0.256660 
0.461361 0.175675 0.542038 
-0.366713 -0.107682 0.058718 
-0.063637 -0.220313 0.447074 
0.365344 -0.288644 0.222796 
0.450508 0.225361 0.762233 
0.001342 -0.226084 -0.615267 
0.404786 0.120724 0.550823 
0.449664 -0.002687 -0.137425 
-0.436651 0.240540 0.263281 
-0.153316 0.103166 -0.907855 
0.419971 0.125953 0.110796 
-0.451054 0.008871 -0.323921 
0.154671 -0.142294 0.658670 
0.055286 -0.224722 -0.948131 
0.375524 -0.087539 -0.246566 
-0.467945 0.144088 -0.501759 
0.262211 -0.200119 -0.220966 
-0.209917 0.272315 0.966166 
-0.353347 -0.122902 -0.623062 
0.510123 0.207405 -0.543502 
-0.190720 -0.217736 -0.473668 
-0.439536 -0.079149 0.036423 
0.372700 -0.063828 0.491043 
-0.390319 0.189319 -0.736754 
0.462428 0.286087 -0.430817 
0.248687 -0.204698 0.284319 
-0.059326 -0.226296 0.027698 
-0.450259 0.002236 -0.192903 
0.389005 -0.231318 -0.663543 
-0.217000 0.267676 0.893306 
0.133659 -0.166843 -0.947071 
-0.267565 -0.200759 -0.878216 
0.019995 0.109966 0.902131 
-0.410266 0.063808 -0.142884 
-0.491497 0.222377 0.629709 
0.457561 0.062257 -0.139122 
0.190127 0.242218 -0.898473 
0.177528 -0.219623 -0.184757 
-0.510304 0.265612 -0.486014 
0.046785 0.282499 0.989563 
-0.458156 0.067045 -0.092192 
0.391355 -0.171512 0.558406 
0.409676 -0.207187 -0.508567 
0.015266 -0.226519 -0.363374 
0.386925 -0.053786 -0.436771 
0.453357 0.027970 -0.028570 
-0.329239 -0.160120 -0.400625 
0.431129 0.202011 -0.273809 
-0.230176 -0.209448 0.337403 
0.392241 0.012283 0.494522 
0.299196 -0.093158 0.630272 
0.251752 0.269540 0.950908 
0.407617 0.047307 -0.081375 
-0.408279 -0.175910 0.480217 
-0.102809 0.003135 -0.919180 
0.046827 -0.226428 0.234262 
-0.401402 0.069109 0.508139 
-0.386547 0.000890 -0.664986 
-0.376125 0.006661 0.569871 
0.020381 -0.226521 0.057563 
0.189767 -0.289006 -0.877486 
0.325756 -0.288581 0.543895 
0.355648 -0.126472 -0.532955 
0.055923 0.092445 -0.972109 
0.200327 0.267183 0.899295 
-0.360027 -0.120211 -0.022997 
0.433093 -0.117238 -0.090644 
0.364600 0.208121 -0.884946 
-0.391692 -0.032507 0.372448 
0.513288 0.218673 0.107163 
0.452148 0.048283 -0.598671 
0.056878 -0.219526 -0.723532 
-0.433677 0.219783 -0.006117 
0.257983 -0.036456 -0.850975 
-0.452223 0.277188 -0.772958 
-0.085116 -0.224492 0.376210 
-0.306880 -0.233370 -0.831476 
-0.310328 -0.164391 -0.677585 
-0.372553 -0.094620 -0.449233 
-0.425419 -0.153478 -0.091327 
-0.101266 -0.069423 -0.912566 
0.447017 -0.024319 -0.328504 
0.240439 0.081826 0.844461 
0.031476 0.287249 -0.978532 
-0.137180 -0.223504 -0.351840 
-0.308513 0.109838 -0.827235 
-0.305002 -0.055564 0.747691 
-0.187768 -0.112688 -0.871348 
-0.449432 -0.002482 0.310692 
0.440932 -0.069755 -0.208212 
-0.382015 -0.231055 0.503447 
-0.098249 0.181366 -0.966626 
-0.246614 0.139489 0.811812 
0.446587 0.081622 -0.667687 
-0.511524 0.260627 0.213457 
-0.085495 -0.192975 0.760985 
-0.478596 0.288848 0.506954 
0.462207 0.099308 -0.470916 
-0.064671 -0.038694 0.837242 
0.358128 -0.054260 -0.825085 
0.027555 -0.226502 -0.112922 
0.203277 -0.026151 0.813832 
-0.324396 -0.155188 0.453925 
0.240111 -0.207189 -0.160227 
0.146753 -0.220060 0.402844 
-0.475250 0.289571 0.439318 
0.194090 -0.217253 -0.321913 
-0.501763 0.281906 -0.385788 
0.224231 -0.147937 0.751254 
0.032678 -0.029018 -0.927510 
-0.418809 0.205456 0.559178 
0.386261 0.155874 0.655881 
-0.148301 0.051822 0.803392 
-0.408054 0.145592 0.716042 
0.430841 0.200003 -0.196912 
0.376739 -0.082279 0.366080 
0.455574 0.046240 0.052482 
0.313275 -0.173925 -0.012669 
-0.251436 -0.203903 -0.255467 
-0.399045 -0.233912 -0.088396 
0.440405 0.161691 -0.724564 
-0.408565 0.054741 0.343164 
-0.432243 -0.120596 0.270183 
0.092836 0.003061 0.786543 
0.277847 -0.193921 0.191567 
-0.448077 -0.015193 0.174357 
0.050201 0.225893 -0.998334 
-0.428689 -0.139017 -0.009884 
-0.125167 -0.173599 0.617385 
-0.151352 -0.180823 -0.830045 
-0.407029 0.043604 -0.003161 
-0.229469 -0.241414 0.688948 
0.429942 0.193728 0.132326 
0.390130 -0.042154 -0.359024 
-0.345227 -0.228736 0.599870 
0.377139 -0.273151 -0.199748 
0.450080 0.007040 -0.543265 
0.427355 0.175961 0.318699 
-0.456213 0.051667 -0.494966 
-0.449908 -0.000674 -0.450214 
-0.412948 0.018625 0.632052 
0.226206 0.191962 -0.882787 
0.424215 0.154389 -0.434724 
-0.058940 0.066773 0.881472 
-0.245863 -0.205528 0.210457 
-0.402783 -0.225003 0.075149 
0.116284 -0.224727 -0.272726 
0.382317 -0.069039 -0.007518 
0.179973 0.074933 0.863486 
-0.180268 -0.219233 -0.202353 
0.233955 0.063473 0.779038 
-0.513267 0.209432 -0.452724 
0.366037 -0.108981 0.091920 
0.124198 -0.233191 -0.932232 
-0.128314 -0.224062 0.077861 
-0.102900 -0.225280 -0.292971 
-0.513288 0.213478 0.015804 
-0.376163 -0.086023 -0.089528 
-0.407466 0.046579 -0.429269 
-0.321133 -0.167775 0.091862 
-0.419560 0.123392 -0.459501 
0.401951 -0.226626 0.222791 
0.220089 0.150742 -0.932504 
0.207560 -0.185178 -0.788204 
0.339612 0.222054 -0.810590 
-0.015133 0.223634 -1.000000 
0.417850 -0.084218 -0.701623 
-0.426470 0.169648 0.300452 
0.391932 0.233461 0.693440 
0.471864 0.207347 0.608014 
-0.282195 -0.000095 0.787219 
0.427669 -0.142078 0.300627 
-0.203314 -0.231158 -0.904613 
0.133069 0.172537 0.868253 
0.439475 0.254912 -0.493274 
0.378189 -0.080797 -0.083381 
0.060806 -0.224748 0.382585 
-0.074093 -0.032193 -0.969355 
0.340105 -0.148702 0.164159 
-0.325979 0.234018 -0.823877 
0.414631 0.091281 0.189331 
-0.451351 0.011353 -0.124289 
0.099493 0.206813 0.987238 
-0.214030 0.196485 0.855619 
-0.069345 -0.226177 -0.455331 
-0.369664 -0.096375 0.401870 
0.007989 -0.067982 -0.973731 
0.096278 0.103059 0.893116 
-0.459876 0.080899 0.020768 
-0.290667 0.207659 -0.927963 
0.129348 0.267450 0.919189 
0.508591 0.271650 0.002596 
-0.385138 0.056596 0.709960 
-0.388352 0.207233 0.685052 
0.113700 0.284260 -0.974621 
0.263317 -0.199736 -0.099136 
0.151933 -0.222340 -0.020789 
-0.167577 -0.231957 0.719007 
-0.363380 -0.114001 0.276491 
0.387014 -0.053159 -0.506526 
0.059837 -0.145227 0.668586 
-0.436698 0.215235 0.787881 
-0.025710 -0.202820 0.547616 
-0.358923 -0.121854 -0.225601 
0.020300 -0.226519 -0.204140 
0.335247 -0.112220 0.546742 
-0.450389 0.286122 0.569021 
0.207088 -0.214922 -0.249037 
0.441551 -0.058985 -0.550133 
0.400861 -0.229858 -0.443883 
0.407893 0.049203 -0.352479 
0.461040 0.090400 0.144676 
-0.015919 0.256643 0.923717 
-0.130679 -0.140307 -0.878827 
-0.439103 -0.081961 -0.039072 
-0.419941 -0.174796 -0.478737 
0.281614 0.118702 -0.901124 
-0.131263 -0.158749 -0.949131 
-0.317057 0.063854 -0.874423 
0.109698 -0.224992 0.298303 
0.322630 -0.015325 -0.864564 
0.145205 -0.179254 0.759135 
0.088174 -0.106192 -0.964198 
-0.423511 0.155788 0.392916 
-0.439154 -0.081680 -0.474593 
0.075213 -0.279556 -0.919057 
0.508914 0.250357 -0.594681 
-0.243716 -0.110140 -0.840073 
0.399462 -0.233047 -0.060189 
0.453764 0.031589 0.119232 
-0.402557 0.016919 -0.236921 
0.164321 -0.006254 0.766930 
-0.046494 0.207970 1.000000 
0.093039 -0.225636 0.121319 
0.310310 0.288655 0.893306 
-0.209401 -0.214492 0.047344 
0.408174 0.207712 -0.833215 
-0.308901 0.026037 0.706069 
0.136383 -0.033590 0.829115 
-0.406896 -0.214910 0.000758 
-0.123816 -0.069655 0.734379 
-0.451976 0.279522 0.191265 
0.065877 0.263857 0.925776 
0.466421 0.131961 -0.173065 
0.446110 0.048136 0.507388 
0.384306 -0.054702 -0.582519 
0.329246 -0.075205 -0.768096 
-0.450770 0.207412 -0.789273 
-0.155796 -0.008892 0.767625 
-0.071369 0.055132 0.817920 
0.065182 -0.224418 -0.658223 
-0.387706 -0.051278 -0.207687 
0.475419 0.207831 -0.395261 
0.291778 0.050679 0.735262 
-0.091777 -0.225682 0.227200 
-0.043066 -0.226449 0.098599 
0.306087 -0.230428 0.646735 
0.493168 0.286310 0.399151 
-0.122803 -0.224367 -0.007128 
-0.427448 0.183539 -0.551536 
-0.417392 -0.182470 0.283849 
-0.293137 -0.238434 0.650882 
-0.400507 -0.230739 -0.424672 
-0.513288 0.236654 0.151128 
0.004852 -0.220513 0.449107 
0.000975 0.032646 0.869449 
-0.377041 -0.058841 0.666550 
-0.052200 -0.226370 -0.224641 
0.417055 -0.184876 -0.210329 
0.490224 0.288018 0.318071 
-0.428022 0.219137 0.494908 
-0.336595 -0.152748 0.155302 
-0.139016 0.121872 0.841528 
0.232497 -0.079758 0.779673 
-0.402985 -0.111979 -0.733981 
0.418266 0.114844 -0.126753 
0.065064 -0.226054 -0.591720 
0.150355 -0.222465 0.054077 
0.368549 -0.229215 -0.738662 
-0.430483 -0.126565 0.338065 
0.458732 0.072472 0.242034 
-0.367366 -0.286550 -0.044004 
-0.272348 0.240026 0.847575 
-0.211416 0.117522 0.871929 
0.101229 0.243515 -0.921523 
-0.270373 -0.193958 0.407692 
-0.283385 0.177711 0.865687 
-0.431504 -0.125647 -0.422843 
-0.365716 -0.288365 0.025186 
0.417204 -0.162655 -0.626300 
0.401937 0.013205 0.270964 
-0.437242 -0.093632 -0.113341 
0.263735 -0.203069 0.699139 
-0.339161 0.103017 0.714789 
0.263145 0.207459 -0.944798 
-0.195868 -0.216999 -0.055262 
0.391941 -0.061686 0.637486 
0.409948 -0.206645 -0.345921 
-0.110516 0.242964 -0.990999 
-0.009151 -0.226521 -0.547841 
-0.409174 0.056845 0.121849 
-0.367048 -0.064963 -0.683914 
-0.405604 0.034843 0.217964 
0.293507 0.049594 0.800915 
-0.504380 0.207480 -0.519945 
-0.418389 -0.119295 0.507616 
-0.095853 -0.225459 0.308552 
-0.273991 0.203631 -0.858550 
-0.065675 0.078342 -0.926155 
-0.033473 -0.091102 -0.917776 
-0.236137 -0.074710 -0.917498 
0.328893 -0.034396 0.643726 
0.345141 -0.142380 -0.210771 
0.350456 -0.130060 -0.606547 
0.492371 0.207629 0.044673 
-0.035915 0.229612 -0.929255 
0.445011 -0.040072 -0.398854 
-0.388866 0.103012 -0.712479 
0.006769 -0.026838 0.844898 
-0.167788 0.031491 -0.901578 
0.094375 -0.061611 -0.915496 
-0.442596 0.265410 0.382862 
-0.060997 -0.226277 -0.106345 
0.012983 0.070896 -0.930208 
0.475078 0.201763 -0.145587 
0.359534 -0.060937 -0.712920 
-0.441465 0.261264 -0.055643 
0.398562 -0.228503 0.387022 
-0.204869 0.139840 -0.890350 
0.440788 -0.070759 -0.277125 
0.418354 -0.180335 -0.404171 
-0.122682 0.213794 -0.917016 
0.379937 0.214101 -0.760711 
0.344025 0.140941 0.801856 
-0.303414 -0.179872 0.354492 
0.408670 -0.208468 0.316423 
-0.190394 0.204716 0.933373 
0.430165 0.195281 0.235306 
0.039034 -0.099638 0.718907 
-0.420778 -0.051973 0.560203 
0.128135 0.276196 0.984561 
-0.239181 -0.016382 0.731325 
0.275135 -0.157765 -0.772147 
0.030214 -0.226493 -0.280282 
-0.028838 0.269310 0.998471 
0.396199 -0.030320 -0.773846 
-0.257725 0.207236 0.949730 
-0.129915 -0.223974 -0.428079 
0.361932 -0.054839 0.553489 
-0.215304 -0.159197 -0.918251 
0.439178 0.253339 -0.325343 
0.092778 -0.225645 0.187304 
-0.474945 0.207533 -0.720657 
-0.439710 0.255814 -0.375081 
-0.001647 -0.003563 -0.974856 
-0.417561 0.246978 0.611890 
0.351827 -0.133344 0.022664 
0.323920 -0.165423 0.225536 
-0.445611 -0.035191 0.113006 
0.366880 -0.085008 -0.652750 
0.487997 0.271506 0.625326 
-0.061905 0.033111 -0.971260 
-0.387778 -0.051225 0.270541 
-0.416871 -0.043163 -0.722598 
-0.433870 0.221664 0.336415 
-0.498416 0.207557 -0.047520 
0.295157 0.195034 0.808489 
-0.396422 -0.113475 0.594337 
