-0.13331808477731696 -0.21858209070755819 0.3221129702477096
0.33674318770507 0.15054562409445893 -0.3745324304002579
0.367527235671543 0.18050553364735042 -0.22948602450110053
0.24001942141898988 -0.4868407228119105 -0.1199114470717764
-0.3774937930686965 -0.24994859911101014 -0.2250082430233303
-0.006141679221176232 0.6075213527847031 0.167967104402421
-0.040998712625227654 -0.566361762328336 -0.050069948070926136
-0.2551638541833306 0.211829180150812 0.09743725300147131
0.23105069633891978 -0.1202888746353171 -0.3147697796892269
0.2745858074292543 -0.8527392730658185 0.09574560430270335
-0.018969335224680493 0.5244109509118929 0.2029727216790451
-0.3423167403342925 -0.03884325081405729 -0.11638893956563169
0.09521142724966536 -0.6925080009385906 -0.16431682472245251
-0.028232107509301708 0.09381728020602857 0.03106455663887421
0.24041117675646512 -0.6386959054439773 -0.004605808637401393
-0.22523360797935588 -0.4867523034476812 -0.1520920037361492
-0.07706735359033676 0.682226171803973 -0.13083254990967735
0.39058879562007226 0.12795690497012874 -0.001118707731928582
-0.011779184719307738 0.06455705170838978 -0.4552387046599567
0.3442665318075063 0.3474633799400844 0.48382824763128807
-0.2559931894505086 -0.24853341573827034 -0.38267848627068385
0.16044487130957363 -0.09994281639716585 0.5090171177436428
0.3056297709286431 0.6460706778160223 -0.18699996144857436
0.3308002577785089 0.33866162199507577 0.08257159257760598
0.34211844637147604 0.33697904350573915 0.4717799982454547
0.10564958696852528 -0.23820360070315366 -0.2875525217641011
-0.046139165789647066 -0.45272307539596407 0.04458959882536536
0.13056289027626797 0.5232094699300398 0.1782437002568982
-0.0652910890656319 0.7799671493284919 -0.18408385876093292
0.03806331601149982 -0.6741183516624618 0.1928293376956143
0.3277675658660213 -0.5392353764880622 0.3842475717914058
0.2746012765682309 -0.4442776419033961 0.4974201082414752
0.1829475387950281 -0.9211786415388272 -0.11351269965919934
0.1637300963087465 0.194314447890463 -0.35150460143138107
0.27425342735833785 -0.7697627630262079 -0.032330233333262515
-0.05580491278726509 -0.017801469871757267 0.40813776276059766
0.32993535806230206 -0.7249788285891301 0.05332406480160736
-0.03104069118152836 0.19861780693385336 -0.6301404152201028
0.3225092728320818 -0.6077753550753254 -0.08958832844964683
-0.17471078083028843 0.13335323032109095 -0.5405332299628965
0.15282509400324978 -0.8883046570425712 0.05883413810699141
-0.08090332364893194 -0.14916697654525188 -0.4207386392439549
0.28849482181500713 -0.588401436298626 -0.10902284885321652
-0.16777788672012672 0.2865494925934212 -0.17172492738216696
0.30708465923423506 -0.8616087600981207 0.02364578100179672
0.16861385161829467 -0.2884011266730028 0.5622462549718438
0.061562431605369346 0.3945750433855316 0.19290544488800504
0.2633351536486799 0.38063312368845476 0.279181422705454
0.2625868431573192 -0.05058294308868554 0.3301611965633984
0.013402217951547177 0.05312919493391775 0.4661515265302108
-0.1165559370561464 0.07585546068801853 0.4416726826115767
-0.045000654160017625 0.10025540471256274 0.24455702135293644
0.3467055196231309 -0.571702136507866 0.38396294691954375
0.1911101930272916 -0.11189293267372952 0.36554624486347786
-0.20257766973934685 -0.6077381150052771 -0.1538502887258936
0.050823959316407284 -0.6866453429726062 0.30327627014046377
0.2602492182711901 -0.7414538501490907 0.11361216840841197
0.19667738315351263 0.6670941604911027 0.12398779589357496
-0.14098596940595295 0.5493464137005089 -0.36020011529001145
0.3665313461034677 0.039138803649089796 0.08510090607992407
-0.16400851652596413 0.608421464826681 -0.3838489075527707
0.14689499836232323 -0.1560487156455952 0.4567761597983912
0.23107693559270992 -0.25379309298087815 0.20426648323878113
0.2605020791967703 -0.06355603813980562 0.20781915192327596
0.3728847546110692 0.4793276631370358 -0.1527140719685299
0.24262567992420844 0.5227839836129121 0.0049334653997919285
-0.3471924818041825 0.15060763421435994 0.1148411514309105
-0.09995640956913167 0.46069972355288724 0.15238915933911318
0.34431096004888434 0.10603063897318434 0.20337331652450696
0.23071133451375567 0.4693238778120154 -0.454388849106381
0.0074580130959495715 0.3403392586166231 -0.1934828177510191
-0.18753185577152784 -0.5277298947485369 -0.1354109050751586
0.380966250503521 -0.11947883329422532 -0.25830405904014236
0.1373258424169497 0.4847983957750066 0.3980899377440009
0.3387177856546805 -0.2787341168885295 0.10724727339730035
0.07832115523141321 0.7790719912964844 -0.4164569904207296
-0.10351132455716708 0.1372731514211968 -0.6143307123423147
0.28505403118901396 0.6105319337850427 0.1781042837312073
0.19422868159284773 -0.40758883902837045 0.058527948721139915
0.08208347081824031 0.3964117911508391 -0.3866396422184858
-0.03338029524320943 -0.29953396486841966 0.35680590207148644
-0.13401272682733 0.5153671992935679 -0.08975130080706044
0.31678762201753874 -0.5954812508025221 0.22652272515474448
-0.1776986195250525 -0.4813002212001878 0.25268309119294197
-0.27937151462480203 0.11337629439447097 0.03705508391613272
-0.31350087924570347 0.14631720659405445 0.2136410971553601
-0.02178991537203191 -0.6028705695077651 0.04270452517848246
-0.034518296901224335 0.28408371912584796 -0.30883482717578026
-0.03560289724588009 -0.34585953135429937 0.31211993075314
0.09221222347320412 0.8872585959813629 -0.36168248135188613
-0.07440703809396897 -0.10038791233709358 0.4825514729831912
0.3257474225943531 -0.7863917474450572 -0.041938681377324066
0.2569070464417185 0.4250448031312257 0.39207368118456687
0.32457684346390925 0.41494611451716157 0.13727272644485125
-0.09494745622819536 0.28667734976251413 -0.10332173046725239
-0.12704055276066156 0.5062815450075752 0.013496520202616559
0.2942540648228561 0.7029503739943618 0.07615635608282302
-0.043250079455398924 0.47962134607614787 0.13399385180649853
0.010990149351865494 -0.03743342214327099 -0.6130065103340586
0.3509395103847523 0.41354680097538143 -0.00825429127453747
-0.25411204987036706 0.26304018970944065 -0.07383338680952349
0.3680836996983578 -0.5869403554805707 0.04544884028508626
-0.05108272134209963 -0.15429640460905056 -0.46214556593341044
-0.21933611409522083 -0.06418749227833152 -0.2893762531110545
0.25453186578882736 -0.44937932508292344 0.24822891411561965
-0.11314006218618157 0.7213069601108095 -0.19019286944332045
0.22669648584024346 -0.9504391250222732 0.021602506874751255
-0.22145584753791475 -0.04184120394584459 -0.5170694602587924
0.33270498961691714 -0.8667177164442469 0.08695880552505672
0.34442457443931196 0.01785063356384259 0.45651186093802604
0.24864453491044072 0.6693683667643 0.186298434781764
0.3766265863380425 0.23719754812933003 -0.11195071731453804
0.25260712363563614 -0.28954445874860857 0.20072939297289466
3.2377126437402945e-05 0.6939298989375895 0.015258763543464893
0.02244275189182767 -0.8704973224972459 -0.25216466862014125
0.34001965819152524 -0.47648421926229556 0.4138337692882344
0.29437700440852244 0.3170325844541832 0.10278738949476685
-0.3388250982530133 -0.027697639043912467 -0.312066165174342
-0.21243087987406134 -0.6304916520985786 -0.11296874207912393
0.208582779776347 0.4914800195853385 -0.47671211586312234
0.32616504077799807 -0.9767336257372958 -0.12782143465336046
0.08601940745548142 -0.1616564485151781 0.4130047132912262
0.285466112537986 -0.5665353712365687 0.2296494461192222
-0.36133424966328215 0.11874026083226766 0.07956534633599054
0.32236298383177486 0.10738868124072457 0.43300027532396096
-0.18283171452760394 0.415999570166782 -0.1328750590793009
-0.021000867862408526 0.07441571368250811 -0.5624156869697092
0.0761977184234227 0.4809682053947104 0.23797758614042855
0.21774193068575087 -0.8467011605800442 -0.031045541982957853
0.14930764978670738 -0.49117875992509485 0.07575373349308394
-0.04698818353271308 0.5307328626012012 -0.3524827876991204
0.00873924392458364 0.6862243128360159 0.011946655754893051
-0.007512155082368072 -0.749703685243091 -0.016395781684794452
0.37924565484453293 0.33774939205616006 -0.1216105510698628
-0.10956003716721698 0.13547134885367187 -0.5987122245356451
0.02605126246812294 0.7573898681389466 0.08753277857730667
-0.19263906364354683 0.35428482096809005 0.05613545331771442
0.005644080489305621 0.13295086271715917 -0.36294759950593464
0.296130323246115 -0.6728743123351508 0.2804014812246968
0.18111956982680086 -0.7267089315760764 -0.24524891926997563
0.15553825227263687 -0.33016696409951607 0.562113553072412
0.297919194390555 0.6299360987353614 -0.4379622748498088
0.3462124984936106 0.37992432385504543 -0.479383177189941
0.3400504386211217 0.5183834264082123 0.2565986046812358
-0.011016680018006906 0.3135653238729552 0.18837092299701813
-0.18896398962936295 0.6835880267164415 -0.30548339086197646
0.14344767524279045 -0.9428289521813579 -0.03596114623405695
-0.17078537146423475 0.21518277777288722 0.24424453017499007
-0.0650581534595655 -0.538428552825015 -0.03823855804311751
0.15922971823157622 0.7496008652518394 -0.07107560602385757
0.3219689700485778 -0.5862256545470496 0.1809672886600222
-0.24882420276714245 -0.17096058921148974 -0.4595563914772815
0.02858800698539685 -0.5723239618966207 -0.2291750389536354
-0.038194475853906514 -0.8554949532541197 -0.17747743147939427
0.220249254697734 0.5665664795050604 0.2380312424395949
0.005509945812480341 -0.5668907243145054 0.41707534314563244
0.029669013244387758 0.4088973047696613 0.16583624872165595
0.22944139591373094 -0.8913589134690484 -0.08140250693546218
0.2581537084801904 0.9311439482913066 -0.3798056340328343
-0.16414200766718037 -0.13810044680191635 -0.4827161331038057
0.021409270130446446 -0.3724908561785944 -0.24760736799703487
0.10895824637760783 0.7760162049551634 0.08702736028067863
0.005232679102486318 -0.22079085062354645 -0.41341662464966017
0.00473419399138086 0.6454796085725014 0.010602152019502755
0.34767419856291204 0.6516383779138579 0.147535480212646
-0.028444984231859878 -0.6974478895522904 -0.051933372208550474
0.001141298260237832 -0.8932041607612661 -0.03531153953448699
0.1528840564356444 0.889886540422384 -0.42560322204922996
0.2155226556407565 0.8003429073421039 0.01659351710727099
0.35538246808655305 -0.11284552322328768 -0.34350338964168725
-0.009877889118207481 0.6562831265266895 -0.08427012589317127
0.2855348129997835 0.6211695409739425 0.09989555902754482
0.2653833089326081 -0.8988430990367909 -0.19774352131150133
0.2589296181496469 0.6685874302317851 0.1942570639416374
0.06631851187854414 -0.338591743741692 0.4159535877261974
0.15380374167387856 -0.720391512493849 -0.012339953149393469
0.005455706688611597 0.05415183372739775 -0.3219238557739563
-0.2523246479298643 0.16324287307079716 0.05977624995408736
-0.2523367901111647 -0.5646475048879868 -0.2007754968352922
0.32633601483288865 -0.6185705920618668 0.2916211360164113
-0.30436552701164826 -0.1706334424207138 -0.3509691798047598
0.068752011428221 0.6718177482871176 -0.08090278332186404
-0.2341111452778602 -0.10273886933829053 0.27490453361729844
0.1172388619012045 -0.7823576534141841 -0.056193869351950546
0.17523426669269135 -0.15512439209410428 0.3645324698623471
-0.1387882345905854 0.11007068267289485 -0.04041543259101097
0.26739687114201155 0.6896598216131434 -0.29378646334988817
-0.13746130059153674 -0.41711989280882344 -0.044008425459604344
0.2480728567304566 0.6129140597656377 -0.16411235038935423
0.044437511933487515 -0.39338404110614045 0.28759024752140133
0.007322530637000074 0.6219533430612443 0.1722255130906374
-0.1690289078016854 -0.0008772968833144915 -0.12905514098438486
0.16446687172787183 -0.1202977991385729 0.2936392394016211
-0.24155702226360007 0.12005687397721099 -0.04797514252644189
0.12580872846773863 -0.6656817576778806 0.09342564629036627
0.014122467861922715 -0.3346937392788333 -0.3286631670876462
-0.0980365364306419 -0.04476771248286052 -0.5114086539147455
-0.0888810888865347 0.56716565972569 -0.03056051040873316
-0.08058780906784176 -0.43656664038896253 -0.23379342689086396
-0.026297141639455544 -0.516769912646112 0.3298321555923396
-0.17951297710804212 -0.5197530644588942 -0.1848359090441341
0.012462935232694235 -0.399321409913666 0.29557010121418775
0.35491975384155844 -0.5849612406395165 0.20119133011828605
-0.10318172504576849 -0.5549992183470787 0.17862500117627378
-0.11100482317796705 -0.32501168533172886 0.002159474802090019
0.2163511288130623 -0.9980982429960101 -0.049982609360832556
0.2510165585961938 -0.9685663331917755 -0.16550533785467691
-0.2378220265846989 -0.533876485482049 -0.2685436090994721
-0.12922480975478565 -0.44715611597118776 0.2463557398064111
-0.23590252985382945 -0.20417789388401358 -0.31050306574900105
-0.1658298558632014 0.5556774684523363 0.04251936905583307
-0.13755055776627578 0.4480047330222709 0.1546745485612881
0.37011252462965577 0.015884231586609777 -0.062313419447706825
0.3372970533050865 0.45793301826396554 0.15803949912287915
0.18708578845709603 -0.18908525966510034 0.2844934448916477
-0.26885627633904735 -0.08406090396718446 -0.21609457059327608
-0.1561670715578206 -0.6542238004359648 0.10833615993195518
0.23171163169364298 0.5533781157216661 -0.07099853959914411
0.06568392505724274 0.168524624799009 -0.5773551961402433
-0.19425651147238823 -0.5156611736450311 0.003408504565915484
-0.10136027642889953 0.1396254683466994 0.134119304823694
-0.13872584806306412 0.3537857044635569 0.12497411742278557
0.16106390399662926 -0.3001518683326143 -0.2569012728345103
0.003457285779289681 -0.43000544273276786 0.41362408595935823
0.08755241855556001 -0.5657987172392565 0.1566352072867658
-0.23918476787640233 0.501725264327698 0.003351254181084225
-0.03665720284819147 0.35591331818191485 0.0025323126210992706
0.36791585832624274 0.06147940944072814 -0.09865389956776871
0.34646395092616 0.6471575973173065 0.16273558487824882
0.31268919871013606 -0.14068178955110652 0.1036418105085115
0.18500359863898283 0.6276376688104699 0.23843588063142984
0.15106104147738772 0.35189434116676044 -0.4168077780384974
-0.21635796486113446 0.31804070119882794 -0.4020328197089458
-0.04260477108800932 0.16501989344628804 -0.5739562838975553
0.19951816789054788 0.5452276886659719 0.37131219035540464
0.26750907703940835 0.04594301492183021 0.5840327401776583
-0.2821479458009454 0.014996176730663098 0.03382845708391551
-0.19176419519649238 -0.2638275494558633 -0.07560008633090906
-0.035165511591078114 0.2970156764667224 -0.29625634087474095
0.2832688391255079 0.1337661737649353 0.5958987718487169
0.1771960424988487 -0.0802594298456637 -0.3407708645931261
0.12743446940640818 -0.01476834084074278 0.49686595122910737
-0.17969353134397859 0.4719551370685314 -0.04072923512453781
0.10438330316507198 -0.6598355887941022 0.29947348466336254
0.19986233801950698 -0.20326563966073527 -0.19111285823608712
-0.07332669965494958 -0.5315921890561911 -0.2618753295463893
0.35036133613777243 -0.03009270858977362 0.37212836349805306
0.220737613229635 -0.49819423301028043 0.4820396436148366
0.23237996163677813 0.7909403421241715 0.1443259738560623
0.2734996164588481 0.88961562407321 -0.43509986488787755
-0.32370498627781735 0.28491237443087325 0.05731857532144147
-0.20800613544421107 -0.1385056192497285 -0.27294754183057346
-0.10595838692335648 0.42252650258734703 -0.38140740630561687
0.09939467583563247 -0.2330922766316739 0.5556719073333006
-0.3347974031516853 -0.05056693969373163 -0.2543596957290788
-0.04732011434292133 -0.54002399902134 -0.00912323433711736
0.2731102409889078 -0.12039525228568966 0.6131200761557611
0.08534942617568941 -0.954038929654576 -0.10935423326526632
0.3551847083797139 -0.01253086466597918 0.2334700077497472
0.20895341986054095 0.037503324681017365 0.5339744486007806
-0.18215425366413093 0.35234181697422307 0.049422016992375604
-0.1951672236386414 0.26099173087097993 -0.44438478451119073
-0.18737586516836205 0.3774614645109843 -0.2217200310475576
-0.013142338845175388 -0.032028366563953886 0.07236752197203593
0.267473694723099 0.7428952970599833 -0.029079419275894962
-0.23117417018056335 0.1612492483230889 -0.4805797284461863
0.07811897577058072 0.11769997944935819 0.4225989428409851
-0.1638809507692224 0.12301162522793155 -0.06588373072163109
-0.23026517006187353 0.10575269230103751 0.051240891466808866
-0.12965908701117482 -0.5021826967238269 0.010311116075914114
-0.3279372285653315 0.10112046227712651 -0.21994910604707948
-0.16138603606652827 0.6555090503266096 -0.023707961112235967
0.009494791155999367 -0.22924689638257095 0.5297701454724385
0.18134747856980885 -0.6007741854797116 0.029082454821220023
0.15862739318598992 -0.7078344085740798 -0.15252121770293608
0.2076089161251506 -0.9292601495734603 0.0738411456633744
-0.2536958766062968 -0.08841808930027942 0.14628016079890693
-0.16155446026334577 -0.016296992897734546 -0.1723061614588345
0.26420979139428963 -0.7197639924220645 0.07729214786384121
-0.11037691455638086 0.22608343317747837 -0.024086772884445
0.215553800335792 0.9049833879782084 -0.06112812399352702
-0.3036420229966843 0.3659004687185537 0.0017190900285067876
0.28993031905706246 0.6326850278708595 0.07582893002187716
0.29546495599521716 0.9592581248647285 -0.13695744256520578
0.3167778718459545 0.6233575499020885 -0.04641713067506583
0.06485110498403146 -0.18859908672583342 0.4643797515770416
-0.019034223041549697 0.1890764808680203 -0.5316826968756042
-0.03326630444516151 -0.3234548755563016 -0.2154893678507216
0.3334029950511504 -0.3446425448069256 0.5706920163033068
-0.07296531191290663 0.00875032366502034 0.48193812283698423
0.19502026681836293 -0.43475983524274187 0.4768022958436403
-0.19594690952648228 -0.02109197671979573 -0.6400498922229632
0.2524509508997508 -0.37030007883311206 0.3934065527102715
-0.13506323192689437 0.6656039505801079 -0.12258916231394765
-0.044321335542805616 -0.03833006152139706 0.06903897366998338
0.15546762120401258 -0.5187117267062116 -0.132657179778047
-0.03511739212658475 0.02617312747074422 -0.523242909497341
0.3551083462015158 -0.3759572668071314 0.5120237161085158
0.04091070609516246 -0.5624654334864967 0.40337397220229726
0.3123991341410514 0.5308386574268714 0.3859304781196375
-0.2548455104739974 0.4809920647809657 -0.17257825559959458
-0.15598268039259314 -0.16181643389599185 0.3821346986811466
-0.05031364772071532 0.6601857207340799 0.0652306392160279
-0.17343099492122915 -0.31310897213096184 0.10701579485299004
0.33520309771329326 -0.3254067433425178 0.15773935654331522
0.19010353334440291 -0.608643921730285 0.035279423464947474
0.027510169835725365 0.625392785905113 0.11407327988547492
-0.28421640281200783 0.5152980131445184 -0.14136992339194265
0.3541703505538807 -0.6003131347135552 0.18380343508380076
-0.09975824917030958 -0.5418859660972084 -0.277418584397722
0.1775503877757375 -0.1938656485852385 0.452222101137692
-0.03156223429492333 0.2159865051797028 -0.14725556650712854
-0.13303749110964666 0.28469550293066725 0.2738476053038262
-0.22185437821255563 0.2519375126923739 -0.38644517304277903
-0.005700116656006856 -0.821237804317213 -0.08857677546769406
0.297965358963859 0.599067990447746 -0.35160567294852535
0.38754358511866394 0.17695274354104257 -0.007778074923936838
0.33501813586554474 -0.4026715955827958 0.32258078420885034
-0.1853314861028182 -0.18628222496972793 -0.06625729707151837
0.03135741998074853 -0.8106129221343162 -0.20721839321907745
-0.27975494042590526 0.0380870964735767 -0.4440304392343019
0.2910401629966417 0.618760872185025 -0.048045822163791364
0.11544325184614275 -0.06097770665157792 -0.2860845441870673
0.0669428142722841 0.4302013811124121 0.3260130995922959
-0.09917802289469002 -0.7946833516427307 -0.15866423863514598
-0.06002163736707732 -0.3186386429169647 0.41770518237404525
-0.248026789294603 -0.08814776791798923 -0.41857070134149854
0.1396462011212697 0.8050841377275483 -0.4642894258903482
-0.17457947528170623 -0.2136734196419816 0.32102452083158156
-0.36031647988450355 -0.3734469679607297 -0.1416549853823315
-0.07654298134869887 0.3424162272967771 -0.27152810869437854
0.2683746931443119 0.5142234908103419 -0.059917269247709924
-0.03548113545179997 0.6728589403336247 -0.06472389742163817
-0.027892454271786337 -0.6546717862150421 0.16701666301895302
0.24184394200772785 -0.9552930469923664 0.054351924733046536
0.013536243348740686 0.5394521751351804 0.19726079675172364
-0.09828972519511733 -0.4341562595524816 -0.17158670079024352
0.2888019097222749 -0.23284164986745282 0.42113721848732094
0.03703897731263773 0.2832174594853355 -0.09662251263621631
0.28679010812915995 -0.0573304503747532 -0.3745063489948247
-0.006358684285376549 -0.7356655873279339 0.1075871330518978
0.10474863711603763 -0.05571081695327773 -0.44734176992327046
0.2810871805581821 -0.04009483043595587 0.20386616766348914
-0.13792824031562392 0.04000522113795921 -0.32972342235879476
-0.13602004795554506 -0.6022042308823632 -0.058018705637402294
0.3931735867487518 -0.1843577742288879 0.060364332221008316
0.33605266185451776 -0.1500088182591693 0.14955643701046137
0.09311619672883562 0.7193914095888627 -0.21350227559655297
0.00028695009958103944 -0.4490041923916484 -0.18497497344656727
0.24541964441014946 -0.9625125694343047 0.021640487617858823
0.17779353495627748 -0.6679030240406082 0.2207777492099234
-0.19991054247926957 0.38273366034251277 -0.21480305533708063
-0.028682181743562636 -0.13142267206305672 0.08243016044981924
-0.24372368523701993 0.0970508523659496 -0.2774004925475844
0.18356783426893894 -0.6342807047686292 0.2734089447199876
-0.06064147143809878 0.4968444474260245 0.27094761529077027
0.022740866727114426 -0.2687029630868581 0.2303317759973967
0.08919638490836138 0.35369369101366277 -0.4346506648906702
-0.053042979375594455 0.6438261713182858 0.06992345872462774
0.31401603557173424 0.5667329973794137 0.22608293534804497
-0.3469769216595569 -0.13453986141521365 -0.20162623876810284
0.1774669831323852 -0.6973275605356036 -0.23406890870020683
-0.03615802563275191 0.861659611553407 -0.21305314845243345
0.00938809780891297 -0.4884417786959965 0.07038181392653552
-0.18161061178076934 0.45829441814818983 -0.012120094672587614
0.29934597354643666 -0.1589479649855917 0.3003936191623048
-0.27565327515609533 0.45726780886142465 -0.24148310673493406
0.15065477623325854 0.6731086442920668 -0.011205958411207735
-0.06727820560416314 0.12595864190916378 -0.5455037411578358
0.20718446189343348 -0.24344868304383838 0.4938311465770735
-0.35592870839671303 -0.039182321226870244 -0.4203949548022478
0.32412491147590944 0.25816919583243914 -0.23106866069615375
-0.3034686083633524 -0.03273669285229245 -0.06786187418818136
0.10258277552658357 -0.007748168731393969 0.4830229053143595
0.2362981099784142 -0.2662507038670722 0.41242350349892126
-0.23707323040608616 -0.5972501602009045 0.042366086159097156
-0.0576115358007663 -0.6840184184748144 -0.010714722182338546
-0.23566046332742518 -0.38846391996359764 -0.19540799702273715
0.14562994091918127 0.6351582202112072 0.21515534858532961
0.04389743985142824 0.8180180985283372 -0.10401623895327113
0.34273596128586903 -0.44006838476508364 0.17848288908633422
-0.1731876898923323 -0.6768492982274539 -0.22452674482386398
-0.08217232730099651 -0.1264521608681173 0.04272516688669309
-0.1942213598575237 -0.2869604690038949 0.38482489608569465
0.23836208652457677 -0.3818948663161016 0.17948611253191493
-0.29171753886484564 -0.42504942930230105 -0.017787967766151318
0.26256323875687126 0.6985745504129708 0.2457339872707442
-0.032223716047805 -0.44546742996465705 0.40084877489943993
0.34657281772369913 0.16187529919093616 0.44919076914951006
-0.14535706967881806 -0.016301485504815687 -0.26921742730855497
0.012765906940501129 0.3567336196662054 -0.1738258890125705
-0.001465154519881526 -0.723615577325812 0.14885831015441514
-0.05358754406473488 0.709271678574605 -0.4193311782985222
-0.09581653285476951 -0.04614632360552355 -0.4794662782787608
-0.24856181022924137 0.0630798096470238 0.08297783353737255
-0.0002737879750515366 0.334244818551796 0.22424558047367255
-0.15971133785285566 -0.7842054019957496 -0.2159021534462091
0.21897943751952229 -0.3213511697929241 -0.18778851112876452
-0.019732434892865008 0.15492119269004262 -0.016685615552434356
-0.24932741118677382 -0.0007587163407350605 -0.5057066370073651
-0.11274524701901864 -0.11700457244192312 0.28554430211446974
0.21297658592824392 0.9877064542675364 -0.2497957654749824
-0.1700922471868843 0.33096587106035547 -0.16774576457949653
-0.05076117209690314 0.06970905208722583 -0.13946216815039064
-0.18645536640398072 -0.018923480276999537 -0.1455229015199279
-0.368737191895944 -0.34705649544470885 -0.30108458213138384
-0.162257116153017 0.3902083142979345 0.041118647021022046
-0.25996386486845013 -0.06244672845620356 0.05884073131143752
0.0017539563021107699 -0.10241093330573002 0.3221830063494501
0.3017406424003149 0.7862166207641621 -0.44530041426087047
0.25328839714403745 0.6190190513860149 0.2617666813081136
-0.07153924914572166 0.581761484454517 -0.3337184307080622
0.31986351581109307 -0.3057786644268389 0.18183921869920203
-0.2164801030628349 0.27394870110533315 -0.4366208309441062
0.34603760251416 -0.6692279181531984 -0.12405331510387181
0.1114253676273054 -0.7252873128472472 -0.21797404669457954
-0.1095055673419035 -0.47148902301277257 0.38081698059770497
0.3022135682197831 0.4648384953287511 -0.3970744264109442
0.2939169493012326 0.6354625761276823 -0.2157196443190832
-0.2474286654437467 0.21231740511871872 0.08594165499752449
0.3630812909931423 0.23108030504802085 -0.1632653118218402
0.2373172518236797 0.7958173342387354 -0.5002716388089612
0.25211909294263024 -0.9558922272129959 -0.1932220036966871
0.28296436178721973 -0.41563218418717646 0.3389414507053241
-0.060556111903557155 0.05387420275196473 -0.17578050093176065
-0.091968177771248 0.364910261691327 0.032216606800653594
0.2282381907421331 0.0941014679593638 0.5794252316348748
-0.05217260353562109 -0.3156322388269924 -0.1763324116405878
-0.3852420346531783 -0.02352206431652718 -0.14013007311718026
-0.20740223191505577 -0.024985209305403436 -0.45338868549048805
0.2837689270045451 0.7486095411439331 -0.19752997676897163
-0.11138199575570057 -0.44690520993679683 0.3955348099642381
-0.13388163983801118 0.36281330698075254 -0.15114366295004616
-0.12569966739529873 0.23142550726239045 -0.03785851991059713
0.1754793080535142 -0.6249404410829489 0.4139125963292363
0.33438426543294003 -0.13570424803319422 -0.2262162564987231
0.28129044067315034 0.5634116858174163 0.4042937302936192
0.0060533569943972895 -0.8823170317466437 -0.0668799359864202
-0.2118770385584074 0.01268057776141287 0.03737619604280239
0.11577044720564389 -0.5317655551207979 0.12197936982686157
0.14145145206828394 0.16565058262739202 0.5202947635932478
-0.1073443804922501 -0.6927467283651372 -0.18004302581943787
0.3299392435603182 0.633499586103395 -0.10426356304417843
-0.12319581604716758 0.6410761736708334 -0.12508240139562232
-0.10721195786298825 0.3851068496776706 0.32579192975990956
0.1490035852825834 -0.4946912865582106 0.19261585386399113
-0.10687758647433858 -0.05396457700738328 -0.2541506802201742
0.1877209338187372 -0.8108302550374116 -0.21026209809000454
-0.08605536045431189 -0.12170204240596103 -0.46094837114155635
0.2475963246831421 0.10428350050587366 -0.32182651190647116
-0.2140393910574656 0.29667564682158676 -0.22449371809072702
0.26411479096779555 -0.5695239506043922 0.1362845471619017
0.03648658091655859 -0.635757254725661 0.20646195960842675
0.27221788780078077 -0.784255063517268 0.09753838522952211
0.11535989577151567 0.04814164825861395 0.3959557915321034
0.12214471598071938 0.6889969920781374 0.18721499947940395
-0.16163407654613232 0.15074457373506553 0.19902901404577175
-0.09703990618950731 0.6606676196255291 -0.05272364607848525
0.20149280226670233 0.3758847537004057 0.4252000652035135
0.12299215524021632 -0.903939269666008 0.0020212117836226717
0.042578628971669495 -0.0193264064212711 0.5115998568436824
-0.34265686711687854 0.18721287459767647 -0.09099194032360736
0.2941575223393369 0.4707273196954377 -0.357314088785451
-0.16799405397381728 0.45874377599375404 0.1932486193580975
0.20403977050063118 0.8633147729973673 -0.34279639899329173
0.17509945205371333 -0.7585651098670096 0.15968637959919263
0.22831656852242704 0.7889196403121632 -0.3144760117548457
0.13259359724566755 0.6109450957881505 -0.34376490794253467
0.06514541931657122 0.632191314637005 -0.3527852008665875
-0.004387219018541475 0.18639485584347032 -0.3719241320085809
0.2367939116674523 0.18592050938878996 0.2083116995077256
0.24778991962179528 -0.17612110125941735 0.2871790889782081
0.21342005481587742 -0.20775907241020164 0.6278966372532443
0.17707765623117008 -0.6545672906027711 0.20104389975293696
-0.017536084286165727 0.24524264176224336 -0.5720069174006869
-0.1622727674247132 -0.47888145011642824 0.21272430175627544
-0.2037408299970161 -0.4685610816983632 -0.24522271644272942
0.17878272204027496 -0.34025977589783074 0.37781727899181033
-0.042131432434376864 0.34571123889407807 0.041213016054088544
0.2983215619944868 -0.9150305694591964 -0.13705348721929175
-0.11016880971107376 -0.6490221992465168 0.16387845555096509
-0.3441160901811947 -0.04191642475900042 -0.180398233191199
0.2820290009929268 0.21622220920310561 0.1645162843346737
-0.18459506280695054 0.03180419761278649 -0.6648146723690398
0.32880024624343673 0.10588728838075213 0.4683769212345806
0.35245932293375737 0.0757989388340653 0.2359361090562155
0.12947678430113088 -0.709629545084071 0.09516615512668694
0.044701300822238124 -0.2013940438350958 -0.34255197688371525
0.35079274783937464 -0.9275379268621778 -0.0664697973864562
0.2305037760666071 0.6842763305478158 0.26097085846132456
0.32931768529955213 0.2798035880752852 0.5618537953878531
-0.19871293485325117 0.2448811933092939 -0.3999314573865594
-0.17157644671813535 -0.2121511543723539 -0.2389221871346911
0.36566483147714784 -0.819529095853718 0.12955810656039018
-0.12937821407333455 0.5912868192675775 -0.17729526233334478
0.2972145593253318 -0.44095446044547837 0.1003570226278655
-0.25441492444072356 0.19049803888594277 0.07700680660328243
-0.03841653206552772 0.5659160957058872 -0.3302261450911741
-0.010596293417025407 -0.1920326041852277 -0.4266848111329231
0.1969438068956054 0.5093727865182932 0.30264612735751834
0.303544351290304 -0.11864013640526466 0.26449572155064155
0.2776857913105086 0.4548736135526171 -0.2985876639687752
-0.22199162128779373 0.03779604838780676 0.20734257130723632
-0.09766895617613569 -0.1055636628225532 0.258661148450005
0.04291438456898745 -0.3916285609602765 0.2848263349341787
-0.043920400716267294 -0.034065168908366264 -0.18331173745204218
-0.17987194855600627 -0.025423019936550977 -0.23430495270468607
-0.2679343083707288 0.4988607659105832 -0.1827102987856908
-0.3207554075963308 -0.039785641931323175 -0.27669605175726203
-0.037886003737970554 -0.18347902028381735 0.04949276948281288
0.28499327171378686 0.8639850456895106 -0.36410369301408707
-0.2493531161845867 0.1898343593982457 -0.5803100566705957
0.2881789186841153 0.05542526927563697 -0.31484062931711465
-0.30532196663267874 -0.3093004676864682 -0.17823182520358644
-0.24980121124329566 0.5385002766899565 -0.14737703688885748
-0.1448431154287359 0.2579071068490706 -0.516011718419173
-0.25570953595315066 -0.1522171046300869 -0.03283057619810698
-0.33974498990832963 0.01042619967027912 0.06331185887385517
0.030819800619311902 -0.1356019501557386 0.37426838652569994
0.21976333674427437 -0.9610601095649729 -0.09011979172516417
-0.24594276600711357 -0.10826837013375518 0.29539410029623886
0.22254610613905643 0.6485592057313524 -0.09635556678032761
0.21382383091284002 0.5993920895510155 0.32114899033209166
0.05996535835675 0.7311344531055298 -0.1382398269010634
-0.31512800439304123 0.14900343350531728 0.16054341118191684
0.2436963046181875 0.27194711108669184 -0.3579777197044229
-0.044261814570071174 -0.21404665815297383 0.046538637483338634
0.34635638334201996 -0.10541817520621212 -0.03942039297562671
0.1133123354544712 -0.5292413170502634 0.4419439146574645
-0.055462393994962826 -0.020686525001813685 -0.21726972732607006
-0.006579951255213233 0.6410355095056585 -0.1368692781867838
-0.1874257452491439 0.04777471153971668 0.41815798859909886
0.2262315495760709 0.5425546481636013 -0.4110382020343618
-0.32024016627503077 0.09942791505694232 0.024727139384045343
0.22045400830100217 -0.23877289901560295 -0.1413036149398613
-0.09835673789371409 -0.047847006087178984 -0.5161132513392066
0.08830758937935539 0.12947694822057854 0.3153176349094997
0.2335966446296194 -0.2595770089011295 0.585333604913455
0.02819987001794912 0.6342114214821293 0.0985498410740245
-0.2461297555991393 0.1828516944869337 -0.16710684299947093
0.2739556039354023 0.05825689880797176 0.6059699948486795
-0.3235880813562574 -0.3356934414918369 -0.16314982753549234
0.32264613949969956 0.41682114658010916 -0.44877987773430544
0.04678179073496924 0.571965366856277 -0.388466154124957
0.27857983226183636 -0.7011855443688964 -0.10104513218433898
-0.12708641377943306 -0.3482412323585488 -0.01489555447422687
-0.2813658557612071 0.047646271545921326 -0.19115699506511397
-0.035089732237582445 0.02373801301095442 -0.12247553578133875
-0.2132235214693497 0.31005430287032065 -0.43992989104517166
0.28010102901950973 0.18538140868123468 -0.3281356378788702
-0.3571186907328748 -0.2924980200655616 -0.24905805510789694
0.10853538277164104 0.572055231140081 0.022879536508655388
0.08358950199146944 0.5772869692235166 0.028592299246486565
0.28873663335560407 -0.508482327510449 0.2724308313053361
0.3263114269157554 -0.12950510593901401 0.28646078181684065
-0.2599825274011088 -0.31502967093778006 0.00161556579073981
0.05532042761119882 0.4475069885842247 0.3304475213406425
-0.21843549208162824 -0.08004535104715685 -0.41058705928814637
-0.0016164339567028702 -0.053847489953103816 0.38251761451063515
-0.16115778734244382 -0.002306273774011487 0.41263851724538825
-0.044493463104919695 -0.16620940223737898 -0.30974473795806756
0.25075309754633834 -0.5572346546353839 -0.12932404173146292
0.03673759623058118 0.1585622321700416 -0.5207083505727012
-0.2340952633047193 0.27438161843741665 0.11884661419827754
0.29204834045219297 0.6903136052230807 0.22992944482000882
0.26549506556929675 -0.5010636368686406 -0.08619999204687126
-0.019135889525577706 0.2805132864301107 -0.6186501719181094
-0.1708597058981557 -0.23059263862045384 -0.33473955172887965
-0.18868635865392996 -0.005556674997214828 -0.002567197107975276
0.27131131611835096 -0.05896997268919867 0.21553791229156044
0.2697706433018719 0.4496405883979637 0.1906510789390526
-0.05190677476041204 -0.14447497056279915 0.21725431889799987
0.3421333084013876 0.418443827689091 0.180969583532288
-0.2757835243349045 0.13288588990502084 0.02170283771883624
0.3036800280241544 0.773861319897605 -0.44063601959869486
0.12681285043473559 -0.7250374753248109 -0.21200170840490892
-0.10843357058143746 0.04652672600348304 0.4300827520011074
-0.3722924347228745 -0.2481783904992288 -0.3466664885813409
-0.18213109852439108 -0.4338798306529973 0.1498506299211881
0.19905648573096382 0.8666816298814226 -0.09394359531809632
0.012864938571186965 0.7656300137722691 -0.23115307314055394
0.2365924728796791 -0.0960091017791027 0.38896352215538277
0.06938300416385745 -0.7666303109521564 0.20969250836520398
-0.2655489768542704 0.309770382244974 -0.14428755599442797
-0.04247229989002222 0.4132755082185872 0.1699562608274107
0.2419253189068029 -0.046177128319482605 0.3176754522431314
-0.055988842549603096 -0.11429624676069365 0.5079970045238731
0.2614491450538368 0.7134921550884391 0.042761374871330804
-0.2626259409811065 -0.35969946887063436 0.13591367637626312
0.19809124302849065 -0.7395267159861834 0.2127000052514934
-0.06950669656476446 -0.5253162719496487 0.005898064566656156
-0.11469377570537732 -0.21954733341003135 -0.34216913390731446
0.2593047386987406 -0.6637225681563402 -0.0430271429356334
0.29464799361078414 -0.6040539222129366 -0.1734967266196987
0.13888979179498168 0.8348818641648106 -0.3708723641221613
-0.14055024722998904 0.005779593303708487 -0.49191498894606167
-0.07181411170381824 0.20008578451088718 -0.2460128931752138
-0.24534909833679436 -0.13041767585900613 -0.4900961994668976
-0.049683480653407275 -0.6967653411148526 0.17898632820741028
-0.1703051846203489 -0.09529307734781972 0.10543816123663258
0.10320025401443275 0.11536475871512657 0.35706760250505337
-0.007312610474877696 0.05311637279046456 -0.5934323912720786
0.17073544281472758 -0.9499915885039041 0.0003283002979994698
0.3242950720046528 0.6846648560650651 0.04035691941932444
0.33559368740136364 -0.035913123907013886 -0.33048172586536567
0.2816438752864416 0.7547313982541365 -0.1520110396712383
0.13784063447754163 -0.46048378700064135 0.39742062428418035
0.08815714775304377 -0.23496879004074 0.51810300273108
-0.3183049697037399 0.13036518520924475 -0.23292166684222237
-0.05171608180308972 -0.6078989381966007 0.03881503238471528
0.2184910182767148 -0.5422208595996539 0.07234804591323013
-0.17905062712848643 0.20551477232954735 -0.5849812630964809
-0.3765489370886267 -0.17019442971361748 -0.33382100785568775
0.3571672230315323 0.06628861175709207 -0.26010750080214284
0.2667335559197535 -0.4120831460148905 0.11058784245884026
-0.06907041584846078 0.2850196263182994 -0.07340845903273563
-0.34431979955687114 -0.0233174078507094 0.07997992897431046
0.03394297606684994 -0.6022591621105661 -0.2023855500757217
0.29701145705872045 -0.2741199422882122 -0.06214233611318457
-0.227651031280991 -0.35617252946831507 0.0453723202585313
0.254739144965806 -0.0353007937040361 0.43544081733879203
-0.054377793650307066 -0.09617763525555188 -0.3757183086791401
0.3270265285412595 -0.8761835060002106 0.06192293903926809
-0.22644905246970454 -0.5055466394843701 -0.1179942330709914
0.3159039383468602 -0.8010214245753501 -0.22145927770413207
-0.13095035942374422 -0.4498671129323033 -0.3342100433445517
0.26288444802099137 -0.03286295939563502 0.18944857801397014
-0.18966993605016666 0.28364339506317127 -0.42337673454854313
0.13683199561910092 0.3562770007962236 0.2623119502437694
-0.035359725780977534 0.2881053552787071 -0.30460304629115553
-0.06606835865939398 -0.11615013928599718 0.07974450422107753
-0.12927575834752203 -0.5849668988960025 -0.07115166464752311
0.28377713511910413 -0.19299062228982714 -0.10561360361424169
-0.08058873187362058 0.3634831668387315 0.06948431245353717
-0.06670441468463267 0.4780569352952266 0.26082154605787383
-0.2703591869716823 0.3638215815737542 0.043194049359788295
0.11623971822854069 0.3681318252339419 0.278112983604109
0.2312784350913896 0.6356761570967558 -0.3424991948216025
0.29156662369346326 -0.05116014596116135 0.4854035013801106
-0.06528080463807048 0.8322860236511478 -0.19478903718876936
-0.1885052458776536 -0.34447801825030555 0.08348164906606892
-0.18683411746528328 0.040939015590864394 0.15650567449665345
-0.011390197799168927 -0.04428224379010898 0.42277527159782907
0.2436044247322876 0.8309794278057773 -0.015596012629082785
0.24737891892695896 -0.5889831924890894 -0.11259919479124705
-0.2455680947187279 -0.3632338757144535 0.05136339393394833
0.011044424902278178 -0.7391301280605506 0.19126406481982064
0.30671630188012566 -0.6238909437844324 0.3646494719213575
0.22861621327255763 -0.008548702744527535 0.2007097347813694
0.33783599616428484 -0.030106514249912147 0.3646089777467208
0.35077363604600786 0.0817140510232672 -0.34365584687009476
0.20274292482684483 -0.6096657227132553 0.37702018121598474
0.17378288747749518 -0.1574854028214179 0.6327325887950128
0.34922583576910543 0.5411390155301535 0.27808306526938487
-0.17132886764142075 -0.18197761528166365 -0.15674355197050907
-0.3387814592534198 -0.46875788217287967 -0.24957102584129381
-0.16932919608742494 0.033311928691397714 -0.5117027739723844
0.3128887311754451 -0.2870404131255765 0.3178971806158575
-0.007331370144986774 0.088450083948006 -0.03119118744765583
-0.0752719013836319 0.2835605003914336 0.16454619052721653
0.027925553858011102 0.4368198170112567 0.3050169732516852
-0.1797127038482519 0.4389505269858462 0.15541615656857097
0.2332357911435536 0.020654493927543396 0.5891311813947784
-0.11442147514753512 -0.004012590227790298 0.35123182732846814
-0.05034463456739389 -0.5580748814391884 -0.04675538756173162
0.17531918910870617 0.5391361627246569 -0.4438840773809071
-0.22079548286571266 -0.4977045145540738 -0.12645687203446196
0.003444779332550296 0.7744674454459383 -0.3785474126377644
0.37442060698157204 -0.7194014026040728 0.11403586982488848
0.21992565342389778 -0.22349021537497626 0.6375643391420516
0.039606368695513795 -0.5556081244549298 -0.26140568211587223
-0.14684084423372362 0.5525197120724549 -0.3924484496104029
0.051172609910266204 -0.7099899857359724 0.16265545862384764
0.27727446277677714 -0.2726352449275278 0.3119017964660788
-0.06856188915341982 -0.018536059698248532 0.279614036483005
0.057772261854639205 0.8832695858696579 -0.39131067865383273
-0.12298520991251262 -0.6172280917863909 -0.20571197349604667
-0.254436974641965 -0.4695110738211231 -0.3139700713444218
0.2959990541240766 -0.5789214646749036 0.24720467255420797
0.08389671132055021 0.840459569420038 -0.26058924184523513
-0.07110413407882281 0.3945283081297064 0.32487696783020126
0.2698076162439315 -0.5837797456880837 0.02778398209513944
-0.09152019199217072 0.5399166378542823 0.1491596790942904
-0.026127381802695016 0.6684921505351211 -0.4048143748855979
-0.005216918551158538 -0.21239164241518912 0.2482609209055274
-0.10128181365333652 0.25845316502651094 -0.49296675683248137
0.12591758312309648 -0.4502092674591665 0.051455115971491355
0.25612261296098926 0.44997508120842633 -0.010343705690524351
0.3006346596743891 0.38256454404136114 -0.38666749638238884
-0.16035753259948018 -0.22359461384979692 0.38977743685230953
0.1631021269762538 0.7704547580806975 -0.06294509214549612
-0.14501625079189795 -0.03905577541335774 0.26679240300142576
-0.07175542854159356 0.6382736610892569 -0.17701096530037783
0.03329980472336921 0.5253356872975481 -0.2119639097945209
0.32677817236494167 -0.27620354059935626 0.38719168649130725
0.29833986026170645 -0.3136745306515706 0.2049101281273326
-0.254940085924146 -0.17515825056666037 0.26757501515496
0.3419038697435358 0.1743623062980584 0.15428839076939233
0.3020567519482888 0.5055433368110565 -0.4623011558445935
0.09538399193030626 0.7698246395821148 -0.15887084999215312
-0.06846165544678527 -0.507540252089897 -0.1623960894890904
0.2750472224608498 -0.4024450589062747 0.12573125527995163
-0.24306859027150224 0.4973128927805929 -0.14958256698461983
0.26898883253230343 0.41100629238190445 0.21344428453866235
0.08255914077068242 -0.8332110150226102 0.07646808230334748
-0.0752460021109183 0.1594748506587589 0.2657150758233689
0.13039030131126447 0.5277464081151054 0.08218417199885497
-0.10223603125518892 0.28587992414779345 0.1631071963369467
0.13778113778916978 0.9141552396092525 -0.32261551084736945
-0.22643006209815075 -0.19760938663467603 -0.0035540043244378892
0.24467712573926906 0.01700745620998208 0.32135696161340443
-0.22541513358979645 -0.21372158767520022 -0.36668944337508924
0.0850981437336782 -0.5436309311140662 -0.10784995056614438
0.18266891216072842 0.90102730746219 -0.17381746233874804
0.1703944417950879 -0.09457319170288318 0.5788569896921986
0.0555388654527925 -0.25337191713811213 0.38949725601880336
0.25908738151128263 0.706473707168835 0.15279722162607481
-0.17558088954227316 -0.3824527266937659 -0.25066204939985753
-0.013931192079898024 0.19505944356632868 -0.37151426053660547
0.26707452051284924 -0.8830504437815485 -0.05201189569501999
0.06065968471004921 0.39759439104077016 0.22636814304460945
-0.0341817034933967 0.5919201797285676 0.15002786934162965
0.3145736895323165 0.5832373058806709 -0.3584958872914163
0.2581365880045569 0.7097432080432237 0.15105581426833792
-0.059543951812539346 -0.021329222800223736 0.44810083838726333
0.29754228894081014 0.6219526995256354 0.12511289041286752
0.03085351945678306 -0.8383009809971825 -0.2575954049129087
0.18521546756049306 0.41021866550749314 0.45931252790804483
0.2955076114781254 0.8493199376741835 -0.3841916449043363
-0.23128982445744944 -0.3086773795108582 -0.43238544383163535
0.24419361193770692 0.9083595214887771 -0.35746927800465106
0.009120811971947888 0.7171065910492089 -0.3644174105523448
0.05130204556292815 -0.21272996001276137 -0.1982450905366571
0.15250270694754361 0.3746708269827196 0.4348221853437193
-0.2156810139692761 0.021207740276313596 -0.4962027210021185
0.2547347130696314 -0.2960721075578703 -0.06976064421557109
0.0019436293162039325 0.11316435261987298 0.4603237044823772
-0.03672965524401086 0.16628967419795584 -0.0019442303541783365
0.26188229308736505 0.6080922781494466 -0.11781786788760347
-0.16174084274630646 0.23450149819339522 0.17747212534616597
0.214369670531017 0.8683494313361165 -0.27433153193955256
-0.19131374455461111 -0.2213566762721439 0.23719016568309936
0.3136944620421752 0.2268821822899608 -0.2434642978889907
-0.15841330224530184 -0.2832156017315964 0.3637631533973367
0.2275712450076662 0.44610188322196426 -0.43929249937998993
0.005761920358825702 -0.16601951066402243 -0.31441197389066755
-0.22361240821649267 -0.028569399092554033 -0.20757231351962072
0.14581139367653406 -0.29683918986152136 0.4815498765899048
-0.0625717625681442 0.5503682753943857 -0.028762095509791013
0.06190884803786899 0.238603199889749 0.3994189601982332
0.3565695970101092 -0.0867578767088981 -0.1809593233890892
-0.3374172851843229 -0.09356863261735941 -0.4093817049504584
-0.22015017449832305 -0.15905973376446164 -0.09988548101706556
-0.07405098076951688 -0.7165743871006321 -0.1785816050203063
0.29799783929883755 0.6167858371168876 -0.12398253832907194
-0.3092001793400178 0.01981281006198286 0.2839572340232419
-0.06107334454259042 0.15513636428486655 -0.642021223925804
-0.055130791023649636 0.47854805010228274 0.005776727748921527
-0.16520905041767586 -0.43880660571089275 -0.10137275252018563
0.21810182493949393 -0.12898635552731816 -0.25358600807880033
-0.19494549526591534 -0.1253308789937531 0.3769717824813215
-0.11798787663908068 -0.4389589050909433 0.33414496125278165
-0.2433711977138701 -0.32316676587840637 0.009480918713863714
-0.05816198944783737 0.7039932416618883 -0.051454144596987356
-0.20060037622548763 0.0334842869549565 -0.5783303468626577
0.38034979195890106 0.22175538907950432 0.04614808422181214
0.2802091915705334 -0.5428925165004654 -0.1056987688738825
0.1838634235305152 -0.26825940920395547 0.5400300701119903
0.31504957804402206 -0.7033005423608831 -0.0355817516371455
-0.13915707763194682 0.6587867107468321 -0.30338333989517047
0.3163498963816602 0.6923533459753678 0.30288258419616176
-0.1385598887290506 -0.19083503298575322 0.29623793332788956
-0.14622999537686454 0.038995331634844595 -0.320814376099816
0.3000497586589689 0.32086440188677356 0.4981267103400691
0.1881368763813628 0.5014747954118339 -0.4734946806621496
-0.38008833436896017 -0.15584317280054247 -0.33377067851419767
0.20331123962260877 -0.310983459009969 -0.09213524811485048
-0.049876905601522185 -0.1403967518450803 -0.03779136150582477
-0.07731807749200824 0.03412078009872206 -0.12298445102618127
-0.02465152394999732 0.03219301454238705 0.06923054086435936
0.020473168663094194 -0.8972577915618516 -0.1252146176078021
-0.3503544758053378 0.043115623010769266 -0.4488920593473395
-0.06295435055873765 0.3624437475506944 0.3444198693440581
0.2680491976901928 -0.10691611968669522 0.34327648869972716
0.3274317859843408 -0.3478667917716079 0.040787432599510474
0.12661301441489403 -0.38733082374682815 -0.21447816699202651
0.3387649216024886 -0.08295286921261892 0.10119177330790353
-0.2091175092986343 -0.24917789843733154 0.04232955033556434
0.28719313141088193 0.981992100903955 -0.17472983798383937
-0.016508272923451826 -0.36642522950999307 -0.2142286694506665
0.027840582873271097 0.6514535739144662 0.17926173716366534
-0.11740036505468082 0.563210247029643 0.01958566627639671
0.2693655801336914 0.6862904998662842 -0.32327740543441535
0.30370604871868107 0.36168986379811685 0.2049568998097016
0.050738854767672974 -0.8368143287453089 -0.1850342880022196
