0.3016122324110103 -0.25777122815997955 -0.07730037551438276
-0.08046265451477065 -0.3023130726194428 -0.18455192216174718
-0.38647888281471826 0.03829326913463732 -0.08953558588641794
-0.36409798565926976 0.34699088607797424 0.7224612788284271
0.3685349740259221 -0.3641989626365189 -0.07974781749761059
-0.4853583382988679 -0.04301419276404979 0.8874756555505345
0.07598767481014329 0.33135445118512985 -0.08031968711133866
-0.1413167797742115 -0.36042982200058393 -0.7954246431813548
-0.3584852653594981 0.09261088471828424 0.26301603234462545
-0.3412391974629785 -0.11785912811878892 0.5547015280516043
-0.41886949775451204 0.14892204577356366 0.9278844423471448
0.40665828191172415 -0.4279824200082381 -0.7889041298583924
-0.3599669275405208 -0.33705715096957894 0.6920442139192264
0.07533582343225745 0.3857480494447267 -0.08128346736943982
-0.06546007510287656 -0.385626077254386 -0.6940077662292998
0.42069708106551706 0.4195183498162419 -0.49775051288306277
-0.3529825199854434 -0.16809567418628552 0.3666024146494599
-0.3903340038471229 0.37018559768372816 -0.9342969802884944
-0.28656566302882946 -0.3583542952206897 0.07473096134081426
-0.10850226148438158 0.33049864630864173 -0.18444394678013418
-0.23965035971798432 0.36620450537277505 -0.7959265287514448
-0.35317647576352595 -0.32360221869413774 0.4461342813838445
-0.27670791059638405 0.03417820736871995 -0.18444194723603025
-0.3909618606957614 -0.3129246531790752 0.9193463890233027
-0.33366292485313354 0.33285011017488014 -0.7959265287514448
0.17308553649767855 -0.3147022478874817 -0.18444194723603025
-0.28522796802329076 0.3415621238357655 -0.41528731449229583
-0.3561637946548188 -0.03974293860999691 0.46805128430717796
-0.4937664212559537 -0.3826547547159248 0.7982959885146187
0.3749595092318952 0.35676665720215794 -0.7283319403176077
0.474010925508984 -0.3582423207508688 -0.6478982791923442
0.31486121164374525 0.3897071467705364 -0.7959245292073409
0.45797058270714286 0.3488064721243557 -0.6722707222753214
-0.4838146902506229 -0.34875248443354917 0.7383976453368633
-0.3903340038471229 -0.2143851201925961 -0.177449541504537
-0.40863783057462905 -0.45449837437064355 0.38314264347728716
0.36682136472884186 -0.0351519853473408 -0.18444194723603025
-0.39990182238449634 0.1526471964392119 0.2607805420364157
0.043663044825779714 -0.06674678173376469 -0.07689846714948996
0.4700478290949664 0.41937838172896585 -0.5989954290421784
-0.3046455408166938 0.058930563831446445 0.28636670839048695
0.09576116645404849 0.4261548366972331 -0.18444394678013418
-0.3110100896995485 0.10200074383040669 0.33303206868833907
-0.4077560316247896 0.4072111558564648 0.9702267882922695
-0.05155724494815184 -0.2769628524696369 -0.07995976917262869
-0.3847892680468854 0.35170381153097097 0.8741187009361866
-0.06837940949463524 0.19172228731849142 -0.18444194723603025
-0.2010571589677554 0.0708578444114742 -0.07678649267966908
0.1269280604022283 -0.10466213703275654 -0.18471388523416665
-0.4850764025802118 -0.26415777202797763 0.8889433209228297
-0.354326213623294 -0.2354683132245848 -0.7959245292073409
0.4669285402928133 0.2682448401764398 -0.077866246495799
-0.29861091671098994 -0.20968019291601517 -0.7723139124279665
0.14855512943048987 0.3638190492567695 -0.6937758191132423
0.1569072251526652 0.16176311800909393 -0.07673450453296654
-0.3699506512515147 0.24700768224844738 -0.780482050092579
-0.30029453284651103 -0.44833777898639116 -0.3852521625069485
-0.4228405923449454 -0.33624733560748155 0.9116061537969344
-0.29861091671098994 -0.03751744602230691 -0.7729517669971248
-0.27822756411538174 -0.3772379897383397 -0.2254046077494332
-0.3072769408574846 0.33637730597423793 -0.34471340534358175
-0.3618365012777087 -0.33624733560748155 -0.045965519861471626
-0.3960227068228444 0.3363833046065498 0.5207792623281892
0.40933167237869766 -0.3685719655918451 -0.8830646612572335
-0.4527317771548087 0.36203745546015514 0.9997780506044622
-0.33767201078154185 -0.33624733560748155 0.15562251806588095
-0.3471978388927325 0.42104800105575935 -0.9997540560752151
-0.46385724054915484 0.4013464929995962 0.578940001679617
-0.33533854281223885 -0.22709622206137003 -0.6940117653175077
0.4586164354527168 0.43816809767373044 -0.2812618722931172
-0.4969097045873541 0.3403903909908541 0.8844643421299944
0.18574265067564596 0.35676665720215794 -0.7691086432293439
-0.40983355794878773 -0.14816821764637664 0.333034068232443
-0.3990480170521122 -0.39806124203681564 0.07486093170757065
0.49265267519005673 -0.3687319291201606 -0.7063469528947401
-0.4979594652419249 -0.4216838560808136 0.8290409786568662
-0.39609069132237856 -0.20323766181310662 0.7610144886965773
0.009526827883242613 -0.4279704227436145 -0.7304654538765163
0.15129050576468567 0.04454184445946326 -0.18444394678013418
-0.0945874340650332 -0.37604626145238884 -0.08165138348456556
-0.4198612716300684 -0.4461342813838445 0.9683472168345618
-0.3383318603358435 -0.0868282031696773 -0.07482893900190761
0.24547303214867014 0.4484897443382909 -0.13083816889749142
0.11962372579051977 -0.05821472704223436 -0.07631659981524218
-0.3608607237549839 0.3001195727374159 -0.7959265287514448
-0.05785380933147244 -0.4252310473212108 -0.794876768096874
0.23838264875608361 -0.2631619990642134 -0.0779422291717489
0.48192112198418763 0.14730441459347274 -0.07566874752556421
-0.28042306354151253 -0.40701720007838216 -0.030097137852569653
-0.3612406371347333 -0.11587957945588405 -0.7959265287514448
-0.4414103584382761 0.011881291065637048 0.894891964632064
0.4650829610848727 0.4229195743370512 -0.9338530814974187
-0.3918776518953679 0.328045205693102 0.3613516118325022
0.04097965663828647 -0.3566306882030897 -0.7366380465253923
0.1724796746341834 -0.28027809659397657 -0.18455392170585114
-0.23689898703095696 0.04713125407407113 -0.18444194723603025
-0.3699506512515147 -0.3300287534442148 -0.7309813362553339
-0.2063759462842472 0.44065353099493326 -0.09266887149729866
-0.33385688063121616 0.06466725586566266 0.5005838668783518
0.00013696877112017537 0.011413397745314083 -0.0767465017975902
-0.3656896227660094 -0.10026314000407907 0.26204825299831636
-0.3317733556749062 0.13570106015828395 0.4853033508360094
-0.29860891716688603 -0.30479850594064556 -0.7382956685875621
-0.28880115333703915 0.3670763066020947 -0.9999680072943369
-0.35210472012381183 -0.025588165898175207 0.43827607305534344
-0.2509017943908789 -0.33677121616271494 -0.18444394678013418
-0.34681592596887917 0.006348552530023168 0.3995469033060462
0.08622134153413022 0.24346648964036205 -0.07865006778454518
0.16249195183498163 -0.1158495862943249 -0.1844399476919263
0.2913965615839589 0.006672478674862144 -0.07422107759430854
-0.4330062745693982 0.4158951758998949 0.35270758267115093
-0.33642229571657667 0.1204885286154757 0.5193955778082597
0.48401664420512125 0.4384420352159708 -0.2532002703383629
-0.3846972890181039 0.32689546783333406 -0.09508632031896733
0.43354615147746317 0.26423375470392757 -0.07676449769452569
-0.38250178959197306 0.18173456451928965 0.857304534566119
-0.17356542708262518 -0.44835977397153454 -0.14343729629644447
-0.32917794742798645 0.2985179379101565 -0.18444394678013418
-0.38278572485473317 -0.023012753092294946 0.6632807719839876
-0.39027601706810855 -0.3561867894120141 -0.8989970286774617
-0.32494291301583245 -0.35042210376034266 0.4371023406663281
-0.2878993589461603 -0.1711009889745138 -0.18455392170585114
0.22050072583450975 0.2027697684927837 -0.07686447489972291
0.21224260868521977 0.4484897443382909 -0.15315907972982165
-0.3362643317323651 0.30147126455168227 0.5182178463310365
-0.3903340038471229 0.415029373302887 -0.31769556541108634
0.11383704515370496 0.1571341734084629 -0.18444194723603025
-0.15302211095870144 -0.09339870509523829 -0.18444194723603025
0.46503297248227404 0.4229535665868183 -0.6605913851641827
-0.39969586934179013 -0.22678229363705077 0.2592688866938338
-0.3964486097169846 -0.37422467677369564 -0.13853841324178093
-0.3583233022870786 0.4484897443382909 -0.7673530435060807
-0.4086698232802921 0.444432669351388 0.2368859899942813
0.39722843191752283 -0.3566266891148818 -0.7546599375342423
-0.12089943492883624 -0.4279724222877185 -0.734026641925641
-0.3535663868637951 0.05751688614995783 0.6451149137996538
0.46738443634851257 0.4231615191736285 -0.6940117653175077
-0.20163902630200317 0.04581555405367578 -0.18468789116081538
-0.31465925768924685 -0.001605633915467261 0.21752840352399652
-0.342188980912352 0.0027393754224037045 0.5617759150913592
-0.3212897459379262 -0.19098845463234382 -0.07755631715968764
-0.3884904241832863 -0.0512383176635727 -0.09379661437192326
-0.06300263539912901 -0.05438160099497314 -0.18444394678013418
0.21456807847810702 -0.23887953546591378 -0.07764429710026119
-0.42894520049428736 0.30223309085528505 0.896937498250399
0.4723732988878536 -0.06945816353871317 -0.07379117561196052
0.15796298443954782 -0.3456571901606434 -0.18444194723603025
-0.4778600479090768 -0.26841080233706716 0.8324781949715465
-0.32836613252178504 0.45377253986091176 0.3113750064985183
0.21121084392758455 -0.35307149969806884 -0.18444194723603025
-0.43662145030932953 0.4318555369375783 0.38287670411146263
-0.3534424151293506 -0.19425371015408488 -0.18444194723603025
0.46872013180994737 -0.4202921733844684 -0.43331520413345764
-0.3175765925369016 -0.00642653475007697 -0.6940117653175077
0.04339710545995513 0.1987226912264004 -0.18444394678013418
0.08182034496134882 -0.3566306882030897 -0.7262864066992727
-0.4719234014644662 0.02064129378501703 0.7889741139020303
-0.47250126971050604 0.4390738911528172 0.6669539345029334
-0.3132795722575253 0.4484897443382909 -0.7677449541504539
-0.3699506512515147 -0.29823600219150037 -0.7460678965195937
-0.35826531550806423 -0.14329132957685647 0.263030029153353
-0.35255661709130326 -0.09498034448145823 0.3668203649567898
0.40500865802597014 -0.37069148234202604 -0.7959405255601724
0.16550726434372964 -0.27148210208072565 -0.0783941261392403
-0.05687403272053973 -0.08822588449833438 -0.18444394678013418
-0.40188137104740124 -0.3105831870333564 0.27529923177515525
0.5053177875444399 0.27966023746585783 -0.10062905657510092
-0.33466669599331356 -0.3247739515390491 0.5066124923517438
-0.3310195275477192 -0.0441699292561296 -0.6937738195691383
0.46289346029105366 -0.42390534958029574 -0.29136356910624384
0.1541538529215339 0.23755583726910268 -0.07805820272977765
0.39649459923137526 -0.3647788304266627 -0.2698784677093623
0.3590731313260577 0.2629280524040519 -0.0769184625905294
-0.3581333455972039 0.33638130506244585 -0.1951195127510928
-0.3903340038471229 0.36573261296424425 -0.10059506432533388
-0.29242832634159416 0.38477827055431363 0.14068792315352097
-0.030586026385984007 -0.44835377533922266 -0.14982583970854652
0.496159875548375 0.4477799061813907 -0.18444394678013418
0.431792551298304 -0.4478178975193656 -0.10746149877827861
0.1527641697692926 0.3725790519761495 -0.7959245292073409
-0.3903340038471229 0.34245392050612466 -0.18118868897891285
-0.38617295256681483 -0.1073195311468985 0.8842243968375211
-0.035944804584554735 0.0512103240461175 -0.18444194723603025
-0.3257687247307614 0.04905481550206555 -0.07448101832782131
-0.39035000019995447 -0.45408846782933493 0.7416369067852531
0.44249811043082177 -0.0977917034916039 -0.18444394678013418
-0.3744696209264288 0.33697916874952516 -0.3824907920994014
-0.05525040290813696 -0.22982959885146187 -0.18444194723603025
-0.3003165278316544 -0.33624733560748155 -0.5997992457719641
0.43689938693977776 -0.42699464522088965 -0.5355039051096351
-0.35547595148306194 0.22789204061473986 0.4612828275153265
-0.37186821404719733 0.057042994197323026 0.5832730137528644
0.4972076366588419 -0.41048440955462157 -0.18444194723603025
-0.33559048536933583 0.2988738567606586 0.26611332616163513
-0.42203077698284797 -0.45434041038643197 0.42228571885610083
0.427377557916795 0.42363941021447116 -0.9197522964764036
-0.3841374166689995 -0.2665752208496463 0.3623953738547611
-0.370048628912608 0.15693221945396454 -0.705667107899399
-0.29807103980292493 -0.18180854765113555 0.238153700956182
-0.2911026286006791 -0.1295264679653039 -0.07593068780318092
-0.2827645296872313 0.4247271622070169 0.024078510099697234
-0.09342369939653762 -0.361683536153757 -0.6941397361401602
-0.2463068420400149 0.22498270394350092 -0.18444194723603025
-0.351380885158184 0.4484897443382909 -0.7173124527607706
0.44998840264419715 0.3470648692098202 -0.5565311109067134
-0.19603430417864728 -0.4197602946528192 -0.6940117653175077
-0.3952748773279693 0.343231743162559 0.07326329596851915
-0.19365884578316148 0.4127558916567023 -0.1844399476919263
0.010410626377185993 0.20256981408238925 -0.18444194723603025
0.4881616991325978 0.0054907481094310625 -0.07605865862583334
-0.3306116205505145 0.2945688383048665 0.4767852929532067
-0.48917746753740154 -0.38651187529243336 0.7646316639806124
-0.4091357170565112 0.08615235726254417 0.7964364124979505
0.5065095158303906 -0.306542108399285 -0.17514406715268924
-0.420631096110087 0.4374622586050381 0.9832758131146099
-0.09355966839560582 -0.37665012377178003 -0.18444394678013418
-0.31029425291033647 -0.3652747173644409 0.3278032608565247
-0.35446618171057004 -0.12237009961728726 0.4555901254513971
0.40458475467593397 0.33636930779782215 -0.2798461950675247
0.1566892748453353 -0.42784645100916996 -0.6990086260332645
-0.5051618231043322 0.3850941985227369 0.8818469388979313
0.5116343473688001 0.4004506972410291 -0.12883062661713135
0.3476497358602239 0.0030553033908269044 -0.0735692262164227
-0.29055475351619836 -0.4465081961312821 -0.9108883174636184
-0.2653744946152278 0.4281063917426827 -0.7628260756547508
0.18407103180474854 -0.38537413469728904 -0.18444194723603025
-0.27881143099373346 -0.3521897007482294 -0.9400856604694131
0.1087702003943101 0.40114653858920174 -0.7959265287514448
-0.29860891716688603 0.19806884030441063 -0.7489312436764419
-0.33679421091991035 0.4395017935910613 0.5014996580779583
-0.1972540260820533 -0.05849066412857868 -0.1844399476919263
-0.2359612008462071 0.3222125355418965 -0.0815893976173433
-0.3657136172952567 0.4484897443382909 0.006504516970130774
-0.47647636338914734 0.33036267730957347 0.8223325081881331
-0.41931539608969165 -0.0398509139916099 0.7950387311692935
-0.3040836689234855 0.34677893440295615 0.28224764753636167
0.11827403352035736 0.31497218634151414 -0.18444194723603025
-0.44155232606965616 0.3381409038739168 0.5081681376646124
-0.29523368671942807 -0.3748385368136065 0.1645524820340962
0.05062545739571377 0.35508704015484477 -0.08085956401940361
0.17351943756823446 0.0719096046101489 -0.07610664768432802
-0.33297908076958455 0.09885346141079837 0.49413933623133927
-0.39275545175699944 0.4545043730029554 0.7420428142383537
-0.4839946492199779 -0.11541168613556109 0.8890872880983136
0.48493043586062384 0.37778386527871655 -0.5381812946648165
0.03019011665340302 0.3567606585698461 -0.7569534146214665
0.3521487100940986 -0.4279704227436145 -0.7422607645456837
-0.4085598483545752 -0.3351115945564412 0.7965163942621083
-0.3545501625629357 -0.379525468193252 0.6523972534262189
-0.31953614575876704 0.40557552877943837 0.39540784701088155
0.4268476787292497 -0.42336347312812683 -0.38566006950415316
0.4837347084864651 0.3741626909064734 -0.4960289054095667
0.4804234634503334 -0.4079709826159636 -0.4991281987706804
-0.3251348692498111 -0.12910656370347562 -0.07573073339278649
-0.3870607501489661 -0.22435684663896635 0.8907349124399638
-0.28026310001319704 -0.3480846367028318 -0.6598695497426588
-0.3633301607233551 0.035343941581319475 0.7167205877060031
-0.29788508220125814 -0.4004666935938606 0.23680800777422747
-0.4092276960852926 -0.41111226640326004 0.17389835117593186
-0.2165676225820513 -0.35662468957077786 -0.773661605154025
-0.4774161491180012 -0.3374330652611205 0.7814278344537445
0.044030960940905466 0.04022082965083963 -0.07686047581151503
0.42043714033200436 0.11505376774095509 -0.07399912819877073
0.3970744670215191 -0.4345269278604479 -0.2525584166809968
0.2346295044729802 -0.39168669543344126 -0.18444194723603025
-0.48556029225336633 -0.0032632559776370864 0.88735168381609
-0.3557778826427575 -0.25994073351275915 -0.08007374318655351
-0.3735438320063026 -0.4478798833865879 -0.2509207900598664
0.5065095158303906 -0.32589969486956977 -0.11471384524328458
-0.34925337023158726 -0.23611416597015883 0.6153656966211705
-0.31800649451924967 -0.44835377533922266 -0.7030976937258306
0.35518401804388605 -0.07309533426378785 -0.18444394678013418
-0.39667455820073033 -0.27536521673058545 0.7651195527419749
-0.3130596224060914 0.2991297984059635 -0.694003767141092
0.3507370319567139 0.23114529887185725 -0.18444194723603025
0.4293851001971551 -0.3500761826303603 -0.9021403120088621
-0.003884114421911814 0.2812238809551423 -0.1844479458683421
-0.27450441299383743 0.060578188173096556 -0.07545679585054613
-0.36304822500469897 -0.19794086948175818 0.5185337742994598
-0.42322650435700665 -0.08801993145562811 0.8973733988650588
-0.0370805456355951 0.34250390910872325 -0.08096354031280872
0.2044263907829015 -0.3566306882030897 -0.739879307517886
0.16755079841796072 0.3795674586194348 -0.18444194723603025
0.12534242192780046 -0.32539980884358366 -0.18444394678013418
0.1254843895591805 0.4281063917426827 -0.7618542972202339
-0.3191182410410427 -0.26503757143371315 -0.18444194723603025
0.041099629284523126 -0.427918434596912 -0.6996244856172794
0.03887613624093706 0.448557728837825 -0.17028717452420852
-0.4413323762182223 0.3363833046065498 0.7426446770136409
0.39826619530747 -0.4363445134509332 -0.2190760506604495
-0.37315791999424136 -0.38527815658029974 0.7887841572121557
-0.37187221313540514 0.3667163886633848 -0.9999980004558963
-0.3349406335355539 -0.44835377533922266 -0.011931279668235682
-0.3141393762222214 -0.44835377533922266 -0.9359705987034957
-0.30863863039227063 -0.30241304982464 0.31565003179275125
-0.18627852849550305 0.35988594600431106 -0.6948035847826697
0.4854423191512336 0.3801573241300984 -0.39713145402848155
-0.4435778642469517 0.410580387671611 0.4302259084928637
0.16391562723698996 -0.4193863799053816 -0.7961484781469825
-0.39588073919146444 0.40515762406171396 -0.13258177135613086
-0.07708542452320873 -0.4478998788276274 -0.1099209380261301
-0.2996246855716897 0.3362253406223381 0.24954910280456055
-0.26642825435800643 0.4014124779550263 -0.18444394678013418
0.337845971118585 -0.04861891488740566 -0.07395913731669185
-0.36007290337802983 -0.2736756019627525 -0.6940117653175077
-0.22368200050388515 -0.34975225648552133 -0.08172336707230755
-0.0747279620246584 -0.013011033484365553 -0.18444194723603025
-0.4473530035151986 -0.4472780206113007 0.5612040454776311
-0.22630340282415612 -0.2029757215354899 -0.07865406687275306
-0.3725280636014989 -0.3147902278280552 0.7841732085084601
0.4656568302427047 0.4484917438823949 -0.16825363817049718
-0.39033200430301895 -0.41485541296584383 -0.3519577536321719
-0.39033200430301895 -0.07268542772247927 -0.12591129222537265
-0.3552240089259649 0.33638130506244585 -0.5151565443078979
0.0008248119428770149 -0.07621262352183703 -0.18468589161671145
-0.3932313432537382 -0.2832334227796063 0.9358046365428684
-0.07407211155856468 0.24629184545923533 -0.0795318667343846
-0.37368579963768267 0.44800785420924033 -0.7984019643521278
-0.16694493655446563 0.356764657658054 -0.7543979972566256
0.17334347768708736 0.35676665720215794 -0.7212115637634621
-0.27822756411538174 0.37511847298815876 -0.9210120092618884
0.4556511115465674 -0.43678841224200887 -0.7018119868669944
-0.4198632711741724 0.4146414617467218 0.2563075618758923
-0.03282151669419374 0.4085448517737956 -0.08191732285039016
0.005945644393078369 -0.4277424747157649 -0.7917254865890578
-0.13360853725350622 0.00017396033704316667 -0.07616263491923846
-0.28685959601210925 0.424865130750189 0.07832814118381005
-0.11975769524548405 0.4281063917426827 -0.7485433321202767
-0.09338170897035479 -0.4483557748833266 -0.14196563183594146
0.23075038891132824 0.40670927028637477 -0.7959265287514448
0.39113982012101245 0.1306622090163443 -0.07426106847638743
0.4261058478666864 0.3515698420760067 -0.8198990630136331
0.39046197466977534 -0.3081737363881035 -0.18444194723603025
-0.3342487912755892 0.19114241952834757 0.5054407595068325
0.11610052907936991 -0.3848222605246004 -0.6940097657734038
0.04554261628348736 -0.3750764825619759 -0.08123947739915303
0.43620754467981304 -0.3476027465737812 -0.6448729689630766
-0.3201280108135346 -0.3362453360633776 -0.19892064609269092
0.060781141899646875 0.4260448617715162 -0.7959265287514448
0.0025964080189716655 0.1345533218426199 -0.18471788432237454
-0.3762752092522905 0.443998768280832 0.7703523596619971
-0.36658141943636857 0.43679041178611283 0.7282699544503853
0.31902026337994943 0.0463714273145723 -0.07428506300563475
-0.3903340038471229 0.3890712917454821 -0.5773823568226446
0.1970100817013721 -0.31701172132753735 -0.07943788816149923
-0.44886665840188444 0.3363833046065498 0.7749613088215888
-0.12765589445606404 0.04449985403328043 -0.07683648128226768
-0.40626837081145506 0.35519501553645777 0.15138948319783088
-0.0643383308605638 0.4546663360753749 -0.14898003255257805
-0.35441819265207536 0.4516590217430426 0.22012181222681226
0.4233004874888526 0.4213719272005983 -0.8826427574513013
-0.37093242740655136 -0.33637530643013397 -0.42528503501201737
-0.39049396737543846 -0.36524872329108965 -0.19308997548558934
-0.03853021511095472 -0.19144435068804314 -0.18444194723603025
-0.3685469712905458 -0.0909892544499854 0.7549718664144576
-0.2733646728545892 0.3108251318699337 -0.081815346101089
-0.4735870221589478 -0.35321946596176074 0.653612976241417
-0.38474927716480645 -0.14406115405687506 0.6768696737143931
-0.39680452856748666 0.41711289825919695 0.04566758778998385
-0.48650407707042803 -0.42552098121628273 0.7450241344973346
-0.3795584606709671 -0.44452464838016936 -0.9943472888181496
0.4716514634663297 0.3565347100861004 -0.4610688762962045
-0.29839696549186795 -0.3369671714849015 0.012175224048916812
-0.3996198866658402 0.11512575132869708 0.25872501069756093
0.4335701460067105 0.2594888365452677 -0.18445794358886178
-0.3684349968207249 0.11177851449869433 -0.6961612752292479
0.4254939873708795 0.42290957661653145 -0.4505372775007299
0.2576262612124436 -0.25265639434209003 -0.18444194723603025
-0.4434159011745323 0.03885714057194961 0.7915495267079107
-0.41809767373038953 0.13223784977025244 0.8983311804908481
-0.4354617147290419 0.370839448605718 0.3706954814302339
-0.39546283447374003 0.1440131649983804 0.7562375778322542
0.5065095158303906 0.29856992605685906 -0.182906297364201
-0.4944262708102553 0.3552909936534471 0.8045485629276526
0.5065095158303906 0.027449741458947376 -0.17834933635131198
0.013943820808855574 -0.3566306882030897 -0.7073007354323215
-0.4127848850462095 0.3456151997344606 0.2300895395849746
-0.29861091671098994 0.1889589173668404 -0.7832414209560221
-0.5050398509139917 -0.4434129018583763 0.932583370991414
-0.3542302355063046 -0.33624733560748155 -0.8399464921997786
-0.3317653574984904 -0.06717668371611273 0.2664272545859544
-0.3473717992297757 0.2030557032996477 0.2645196895107916
-0.3942331148498143 0.2726078454112463 0.7472356302762971
-0.4213669283403385 0.11489780330084744 0.9462102640597945
0.41614611868493984 0.3260316647804301 -0.18444394678013418
-0.35964300139568184 0.15737811778914412 0.49272965763805854
-0.35907513087016163 0.3955498146422616 0.6854757115377694
0.12362081445430442 -0.1356690674526208 -0.07676249815042176
0.01803288850142167 -0.43102372659033744 -0.18444394678013418
-0.34395257881203095 -0.2517526004071072 0.5746009909740579
0.02266383264615667 -0.1680136928780238 -0.07790423783377394
-0.46078794034960036 -0.34083029069372184 0.6140020075422804
-0.20155704499374144 0.13592300955382178 -0.18444394678013418
0.3851891768676742 0.4471080593624654 -0.10308249719064058
0.47437884162410976 -0.4159111722527264 -0.5318567366640408
-0.35866322478474916 -0.44835377533922266 -0.6572701424075311
-0.39548882854709133 -0.11555965239925298 0.7564195363457132
-0.3699506512515147 -0.059702387855568924 -0.744188325061886
-0.32240549154792714 0.4484897443382909 -0.10095898135225174
-0.39356726666320085 -0.4238073719192025 0.9384540324805944
0.16142219573937144 -0.1149517909916539 -0.07630660209472244
-0.4034110222869186 0.3751064757235351 0.9585694461662742
-0.39861611552566023 0.26382384816261895 0.779366304482578
-0.10568490384192407 -0.44835977397153454 -0.1820604902082326
-0.3219036059778371 -0.05580127730877359 0.21680656810247262
-0.35821732644956955 -0.33618135065205135 -0.30526839880507256
-0.3903340038471229 -0.38670383152641197 -0.8420060226268412
0.27280080141727686 0.03972694225716539 -0.07474895723774984
0.5065095158303906 -0.2610104896083693 -0.12436564463302371
0.19648820069024264 0.4474239873308886 -0.10483609736979974
-0.440338602798562 0.3460830930547836 0.4294800785420924
0.49642981400240754 -0.37023558628632675 -0.2409750576868475
-0.31200386311920886 -0.2261464386119965 -0.0788320262980041
-0.4130808175735933 -0.2468957077786265 0.3574425031092911
0.1984717484413554 -0.12488352655594524 -0.07573273293689044
-0.19950751228719854 -0.16198906649283962 -0.1844399476919263
0.26813786456687877 0.2876844079549863 -0.18444194723603025
-0.3354265227528124 0.36595056327157416 0.5120932427406552
-0.4295930527839653 -0.400670647092463 0.32600966979528667
0.48416860955702107 0.37541640505964646 -0.812966643605258
-0.3392676469764894 0.24766953134685296 0.5402548219006066
0.43189052895939734 0.42555297392194585 -0.5716796570381953
-0.37141831662380986 0.41165014376722114 0.7760850526080054
-0.3715002979320715 -0.017268062881662972 0.3641009849754256
-0.35304850494087353 0.15549454724322856 0.6413157800021596
0.48834565719016065 0.3363833046065498 -0.2219333991849859
-0.2986009189904702 0.052170105216010766 -0.7375218450193357
-0.393131366048541 -0.45449837437064355 0.5428682260444618
-0.2295966519633524 0.26919862271402123 -0.18444194723603025
0.4848664504492976 0.3971614471900407 -0.6540988654586756
-0.05685403727950029 0.3896651563443535 -0.7959265287514448
0.1974299859632004 0.2393174356246776 -0.18444194723603025
-0.3163028829426891 0.3363853041506537 -0.3863519117641179
-0.3979202741774876 0.37669411374206685 0.06018827707282737
-0.3921395921729846 0.2419168429598052 0.9279884186405499
-0.341759078930004 0.2668511579359907 -0.1844479458683421
0.3532404611748522 -0.4168329620846447 -0.0815134149413934
-0.3893522276920862 0.45460235066404864 0.27256385544095946
0.18456491919842277 -0.2069968047285219 -0.07738435636674842
0.48572425486988974 -0.39086288326261615 -0.607737435864623
0.1678527295776563 -0.19090647332408212 -0.18444194723603025
0.3499832038295269 0.01099349348348578 -0.18444194723603025
-0.11334715684823864 -0.10569790087859968 -0.18444394678013418
0.4906411338214888 -0.3363053223864959 -0.22787804380601231
-0.27822756411538174 0.3611596555985236 -0.8820228987790785
0.3608127346964892 0.22721219561939882 -0.07603266455248207
0.05592824835937406 -0.13945020535317948 -0.18444194723603025
-0.3515308509659798 0.1252634399356947 0.4340790299811643
-0.4055325385812035 0.4546043502081526 0.5003739147474375
-0.4175018095874141 -0.40625137468657146 0.9831878331740364
-0.3460880919150434 0.3363833046065498 0.11595756167593786
-0.4803954698328782 -0.15773803572785405 0.8895791759478839
-0.09065433081257475 0.2058170737071948 -0.07867406231379251
-0.09639102284679095 0.10823732189060896 -0.07783625333423984
0.4835647472376298 -0.40058466669599335 -0.8404463782257646
-0.40835989394418076 0.18326821484701492 0.32280440059666393
-0.37828875016496244 -0.4544963748265396 0.6245476031464826
-0.39402316271890014 -0.37243508480066545 0.005486749021223124
0.48563227584110824 -0.03789535985795238 -0.07466097729717629
-0.29861091671098994 0.2271762038255278 -0.7301155336583259
-0.16383764501693618 -0.2770508324102105 -0.08046165474271871
-0.4546013508919967 -0.4370023634611309 0.5277376758099154
-0.29678333339998486 0.3871997184641902 0.1777414749437128
-0.3232433005274798 -0.20203793535074005 0.22662832874104702
-0.002032536581659391 0.3489244452264884 -0.08093554669535351
0.10597283819289202 0.1135921010009718 -0.07683448173816373
-0.35905913451733007 -0.10953702555817274 0.48927844451465063
-0.36761118464989984 0.4484897443382909 -0.5311169053455812
-0.17974801745202096 -0.39223257097381803 -0.08206528911408204
0.20520021435112795 0.0812474755755688 -0.1846618970874641
-0.5001449669475361 0.35573289290041876 0.8460471012609126
-0.39708446474203885 0.35257161367208284 0.03589181666580016
-0.08042866226500359 -0.25924489216458646 -0.07978380929148159
-0.44132837713001444 -0.3747905477551119 0.41372966963532315
-0.3903340038471229 0.38551410278456516 -0.6156556305162424
-0.3903340038471229 -0.41526731905125636 -0.5877599907221155
-0.3253288250278937 0.1911164254549963 0.241922841592117
-0.35831930319887073 -0.008316103928304334 0.48385967999296164
-0.37895659789567987 -0.4461142859428051 -0.4388059522428887
-0.39034000247943473 0.4153313044625826 -0.7887501649623887
-0.07548778878415723 -0.4113782057690847 -0.0820632895699781
-0.46759238893532284 -0.419302399053016 0.6047241228999789
-0.3794144934954831 0.19619126839080694 0.6385404127858849
0.4448035847826696 0.34661497178643275 -0.6408118948879656
0.4350558072759412 0.19580335683464176 -0.07533682320430946
-0.3074728961796711 -0.0011557364920797935 0.3070899834837657
-0.3536523672602647 0.21670259180906756 0.6457427706482922
0.37307793823008356 0.12171424915119355 -0.18444394678013418
0.3426708710414026 0.35443718832106286 -0.18444194723603025
-0.27821556685075804 -0.425940885478111 -0.8057502889341231
-0.36867494211319823 -0.04809903342038015 0.2616443450893196
-0.2956895827751273 0.17377637898559134 0.22075566770776264
0.040077862247407586 -0.19953650567670572 -0.07828815030173125
-0.33027769668515583 -0.10314248351375886 0.2668291629508472
-0.3888343457691647 -0.18923685399728862 0.9037439463802254
0.3963806252174505 -0.3819509151913364 -0.23905949443526883
-0.4460692962004663 -0.2297936070575909 0.8942581091511136
0.35263859839956496 0.3138844343489685 -0.18455392170585114
-0.29917078906009437 0.3727470136808808 0.24630784181206686
-0.2845541216602615 -0.4426570741870854 -0.6881031124903523
0.27895739771332134 -0.22848390566950738 -0.07689446806128207
-0.45714477099221384 0.3363833046065498 0.9634883246619772
-0.2782215654830699 0.38208688419040465 -0.22806200186357517
-0.39419512351183933 0.2177343565667028 0.745839948491744
-0.38832246247855495 -0.34817661573161324 -0.2968723131126104
-0.3676591737083945 -0.025220249783049455 0.552338066920742
-0.08621934199002629 -0.34238193691838265 -0.18444394678013418
-0.30325585766445257 -0.24912719899862834 0.2762250206952815
0.30182618363013236 0.35676665720215794 -0.7755511743322524
-0.4764583674922119 0.08520057426906669 0.822196539189065
-0.3699506512515147 0.1560364236953975 -0.780412066048941
-0.36815106155796484 0.0035991793870997543 -0.6954514370723477
-0.2815368096074095 0.38093914587474065 -0.004388999308157777
-0.30823872157148174 -0.33607137572633444 -0.020695281475823554
-0.4606719667915716 0.43119168829506876 0.5585906413337759
0.34934534926036864 0.15113354155252606 -0.18444194723603025
0.4859042138392447 0.39032700544275906 -0.35895015936366514
-0.20134109423051547 -0.049346748941241386 -0.07577872245128116
-0.39303938701975955 0.4608689218858101 0.6661441191408359
0.16094830378673664 -0.024426430773783567 -0.18444394678013418
-0.29861091671098994 -0.17592788844143536 -0.7654594752396455
0.10550494487256905 -0.16692794042958206 -0.0772023978532895
-0.32815218130266305 0.308553649767853 -0.081635387131734
-0.39947591949035627 0.4460183078258158 0.18492783645328864
-0.3699586494279305 -0.14007206356950616 -0.7506988406643287
-0.370084620706479 -0.44835377533922266 0.194607629460483
0.403576984447546 0.3946180270898236 -0.2876724106903627
-0.2256395541816466 -0.08231923121528291 -0.18444394678013418
0.3131196087292098 0.12173624413633694 -0.1846618970874641
-0.4042408330900555 -0.10927108619234814 0.292611284627105
-0.06029525268238843 -0.028111590557352913 -0.0769044657818018
0.39649459923137526 -0.35392930411866097 -0.21758439075890704
0.2983249819041259 -0.4483577744274306 -0.18333619934654904
-0.4803214867010322 0.44132937690206636 0.7371099389339232
0.4187435264759635 0.3568186453488605 -0.9132817717560398
-0.3448263795854546 -0.44347288818149466 0.5419944252710382
-0.3903340038471229 0.37771788032328635 -0.815234126619131
-0.34699988402644205 0.045071723647008496 0.40089259648800074
-0.36528971394522053 0.3984151613432138 0.7310813134605311
-0.39983183834085834 0.07552078126187231 0.26027665692222174
-0.308912567934511 -0.22014780630016356 0.31765157544079947
-0.2792833234022643 -0.408458871377326 -0.9939153872916977
-0.35471012609125124 0.4115081761358411 0.653507000403908
0.13891132821716648 -0.35528499502113525 -0.08054763513918832
-0.31491919842275967 0.22109758974953714 0.36170153205069244
-0.48117929112162433 0.14277944628624678 0.8552170105216012
-0.4404565759006947 -0.16127123015952363 0.7919514350728034
-0.4820850846007111 -0.13720471732445003 0.8634631304062674
-0.3244030361077675 0.0005138828347136978 0.43126167233870677
0.03090795298671902 -0.11764517689966687 -0.18471388523416665
0.333718912088044 -0.12202017939909701 -0.1844399476919263
0.49408834785668876 0.4013444934554922 -0.6990186237537843
-0.4533156440331605 -0.33624733560748155 0.8950199354547164
0.4746547787104541 -0.3589881507016401 -0.8995708978352936
0.4941223401064558 -0.4008266115325706 -0.7904837697005084
0.054172648636110966 0.4461722727218195 -0.10152485233366798
-0.3146952494831179 -0.11693933783097454 0.36005790679725025
-0.310024314456304 0.3363833046065498 -0.05827071427714486
0.305751288706175 -0.07654654738719573 -0.18444194723603025
0.1419726302403052 -0.22576652523224708 -0.18444994541244603
-0.17085404527767672 -0.18411002291477543 -0.18444394678013418
-0.29994661217242474 0.40321606673678406 -0.9999280164122581
-0.41059138516418264 0.4546043502081526 0.8455712097641739
-0.3648858060362238 0.4484897443382909 0.18473588021930998
0.5065095158303906 0.15791199606489723 -0.11804508572045579
0.4907431105707899 -0.4472840192436125 -0.10398429158151945
-0.3787666412058051 0.4463202389855113 -0.15704019483557755
-0.43450793219146044 -0.40236426094850375 0.3637070747869486
-0.27822756411538174 0.36922781605793886 -0.3941041442551099
-0.2857318531374847 0.4436948375770325 -0.36842599887225724
0.1451679017184082 -0.4279724222877185 -0.7313732468997071
-0.32657654054875496 -0.12978440915471273 -0.6940137648616116
0.42663972614243956 0.3149201981948116 -0.0776762898059243
-0.28818729329712833 -0.3849882226852278 0.09493835405527537
-0.37761690334603715 -0.31914923397465383 0.8214966987526845
0.37242608685219775 -0.11912483953658566 -0.18444194723603025
-0.4131308061761919 -0.2882482793922986 0.35782041694493655
-0.279043378109791 0.2427646496598776 -0.18444194723603025
0.5065095158303906 0.15358898171216964 -0.1594216518633752
0.3945570409946532 0.029617247267622996 -0.1844479458683421
-0.3573455252202498 0.014138776358990164 0.6728825827711282
-0.39712445562411774 -0.16622410090499368 0.7684267986898988
-0.3460241065037172 0.2996036903585983 0.5897975261640347
-0.47892580491647907 -0.012551138340458365 0.8402824156092411
-0.3706304962468558 -0.10619778690458576 0.574135097197839
0.27832754132057896 0.27662892860427823 -0.07791623509839761
0.36358410282455605 -0.11025886097969663 -0.07415709218298232
0.38907029197343007 0.35676665720215794 -0.7634599311357012
-0.2717490412186022 0.09653399025022298 -0.07636058978552895
-0.3965665828191173 -0.0010477611104668012 -0.1295864542884223
-0.16108427278580487 0.0486329116961333 -0.07689646760538602
-0.34046937298295993 0.09269286602654597 -0.6936638446434215
0.3299697668931484 -0.09296280448057842 -0.07399312956645888
0.06615991553925704 0.14561479982563977 -0.18444394678013418
-0.34310077302375064 -0.18752324470020837 0.5683744106343754
-0.4773581623389868 -0.3364232954886286 0.8188752964324134
-0.3903340038471229 -0.3773559628404724 -0.4889145274877329
-0.29860891716688603 -0.1928200370315568 -0.73306286166754
0.42267662972842196 0.4452164906401341 -0.09909140715916775
0.5065095158303906 -0.0872521065197135 -0.1614891804668536
0.25120172600647056 0.20282775527179805 -0.18444394678013418
-0.27822756411538174 0.357590469372983 -0.6408758802992919
-0.4259758774999301 -0.3788276273009754 0.30113534114221957
0.16467345445238488 0.3442755051848179 -0.1844399476919263
-0.2786734624505613 0.22623841764077796 -0.07912595928128391
0.3722121356330757 -0.30027553717752353 -0.07780626017268066
-0.3776848878455713 0.45459435248763286 0.5559612408370891
-0.09531926720707681 -0.29076570541916447 -0.08039566978728854
-0.35040110854725126 0.42391134821260756 0.6219042058410683
0.12998936242536702 0.27043034188205095 -0.07886401900366721
-0.3753754144055156 -0.14318135465113954 0.8050484489536386
-0.29388199490516165 0.42712061649943817 0.15301511255433758
-0.3900860603782338 -0.1331996304842496 -0.10501405679505077
-0.3648698096833923 0.21565683024270468 0.728070000039991
-0.39415713217386444 -0.44835377533922266 0.22192540100857003
-0.34930935746649766 0.1875332424207281 0.6138940321606674
-0.3483035867822137 -0.26867674170289174 0.606513714873009
-0.15679525068284433 -0.3566306882030897 -0.7302195099517311
-0.09636102968523179 -0.3566666799969607 -0.7901538449233576
0.15907473096134084 0.42664072591449154 -0.696195267479015
-0.42048312984639513 0.3368172056771057 0.3815789999880027
-0.41718788116309485 -0.3461330816573821 0.258651027565715
0.14422611644545044 0.12683908068960278 -0.07688247079665841
-0.20848946440211635 -0.44862171424915126 -0.1758918966475644
-0.031079913779658252 0.15299911620150608 -0.18444394678013418
0.039366024546403415 -0.05639314236354111 -0.1846838920726075
-0.37238609597011885 -0.05735292353343437 0.5870141607713442
0.476344393478287 0.4133537553437817 -0.966439651759399
-0.3717102500629857 0.13359354067272666 0.7782585570489929
-0.2834523728589882 0.3433237221913404 -0.3727490132249848
0.4812932651355491 -0.36829402896139685 -0.5736352111718529
-0.32458899370943434 -0.13614095986115166 0.23649607889401214
-0.2273091735084401 0.4281063917426827 -0.7514546683356196
-0.00575568770320368 0.10241065037171528 -0.18444194723603025
0.38229983563747466 0.3556809047537162 -0.07940989454404401
-0.3473018151861376 -0.368647948267795 -0.9999880027353765
0.3511449389539186 -0.3035487908756804 -0.18444394678013418
-0.4811233038867139 -0.1929999960009118 0.8564127378957598
-0.3855650911592158 -0.33624733560748155 0.4192524104504173
-0.4978274953310646 -0.3618734928436317 0.8280492047813098
0.3284301179331113 0.4281063917426827 -0.764435708658426
-0.32976781293865004 -0.2992657674050317 0.47058270714277145
-0.38759262888061524 0.34656098409562625 -0.7169025462194621
-0.35270058426678724 -0.44835377533922266 -0.9493035587885963
-0.37808479666636013 0.2607385516102329 -0.18444194723603025
0.3963846243056583 0.3796134481338256 -0.2588089915499267
-0.3546381425035092 -0.41390962860467817 0.6529811203045707
0.391981628188773 0.3905449557500891 -0.6940117653175077
-0.3837914955390172 0.14542084404755717 -0.08754603950299336
-0.4349738259676794 0.3363833046065498 0.5797358202329869
-0.354790107855409 -0.27619902662193024 0.45797558156740265
0.2770978216966532 0.3149501913563708 -0.07888001535649876
-0.15734512531142902 0.4165130350280137 -0.08226924261268435
0.22305614319935058 -0.44860771744042366 -0.1295864542884223
-0.47297916075134877 -0.1547747113658086 0.795560612180423
-0.3681310661169254 -0.1515034572117557 0.7519365584646701
0.1671388923325482 -0.41324178087396074 -0.08172736616051546
-0.413160799337751 0.42363941021447116 0.20717476415377292
0.484098625513383 -0.3994349288362254 -0.5606641685695662
-0.3903340038471229 -0.3847802700984176 -0.2307493891392763
-0.3936872393094375 0.3891592716860557 -0.006554505572729456
0.1745651991345973 -0.23935542696265252 -0.07798222005382778
-0.5022024978304946 0.4415073363273174 0.9670355159023744
-0.344918358614236 0.2632579771812027 0.5817013720871641
-0.38383148642109605 -0.07638858340298411 0.8670543116169513
-0.30048448953638573 -0.1495618998868258 0.255851665820193
-0.1209514230755388 0.11614951790991657 -0.18444394678013418
-0.4212109639002308 -0.2951467065509064 0.9490756107607465
-0.3936592456919823 -0.4544963748265396 0.5869221817425627
0.3214097185841628 0.20993613456132004 -0.18444194723603025
-0.282202657794023 0.34495335063605503 -0.9758914967387438
0.2970712677509528 -0.42797642137592634 -0.729181746561784
-0.3225954482378018 0.3363873036947576 -0.8311225040690724
0.26680016956134006 0.40723315084160816 -0.7959265287514448
-0.37115037771388126 -0.4248571325737732 0.7741334975625558
0.4858822188541013 -0.09975725534578117 -0.07530683004275031
0.4994471260552594 -0.005438759962728486 -0.18471188569006272
-0.289023102732577 -0.4423051544247912 0.0034872049172788235
0.14023702595808155 0.0875260440619539 -0.07656454328413127
-0.27913535713857246 0.35097597747713527 -0.8347776706910826
0.21660961300823414 0.20467733356794654 -0.18444394678013418
0.1827073427258585 0.4281063917426827 -0.7541440551554246
-0.4392428526296005 0.39230455456156005 0.39843315724014927
-0.2986129162550939 -0.268630752188501 -0.7528263555909254
-0.2799831638386448 -0.4358046365428683 -0.6499018223844965
-0.27822756411538174 0.4034840056467126 -0.8687059350468095
-0.4343039786928581 -0.008366092530902943 0.7930051948155821
-0.3903340038471229 -0.4117581191488341 -0.4596072095562213
0.32320730873360876 -0.4279704227436145 -0.7779886185949605
-0.38861439591773084 0.43587462058650633 -0.34625305430361886
-0.4365974557800822 -0.3364412913855641 0.5190456575900695
-0.27822756411538174 0.42337547039275053 -0.4678053403823929
-0.3877705883058663 0.34697888881335065 -0.5149006026625931
0.038382248847262816 0.27417948707694645 -0.07946788132305839
0.20112514346728946 -0.07054791507536282 -0.07563075618758927
-0.36909284683092264 0.22683428178375334 0.5628656666280089
-0.07691546327437347 -0.12706502917334847 -0.18444394678013418
0.4852243688439037 0.39419812282799527 -0.849838236881991
0.4079759814762235 0.35331144499054223 -0.7050612460359039
-0.38784857052592014 -0.4275045289673955 0.8965235926208825
-0.45141807667851735 -0.263533914267547 0.8935282755531739
-0.06526611932479397 0.179065173140524 -0.07852209696189273
-0.2985989194463663 -0.2975961480782382 -0.7023718592160989
-0.39033200430301895 0.3892072607445503 -0.2068128466709591
0.18864398917046915 -0.4279704227436145 -0.7721319539145076
-0.3923355474951712 0.3314324334051837 0.9294200922189741
-0.44697309013544917 -0.3362493351515855 0.7313092614883807
-0.3569036259732781 -0.44842775847106864 -0.5264879607449503
-0.32624661577160413 0.23951339094686414 0.44477459139316233
-0.38713273373670803 -0.3458251518653747 -0.36489480398469154
-0.3787786384704288 0.054209640202033955 0.36311920882038895
-0.3699506512515147 -0.03141083832886101 -0.7090603342437926
-0.3012763090015477 -0.378375730333484 0.26164634463342357
0.4397227432145471 -0.4545303670763066 -0.1415977157208157
0.42154288822148556 0.42004622945968323 -0.6502157508088158
-0.10989594372483076 -0.42005222809199505 -0.08258117149289966
-0.3709144315096159 0.0897375398409163 0.7723239101484862
-0.3046935298751885 -0.33624733560748155 -0.4439367824136098
0.41386263931823547 0.22564055395369859 -0.07556077214395122
0.022487872765009572 0.44077750272937777 -0.0927828455112235
-0.32938190092658876 0.233236822004583 -0.07893200350320131
-0.31611492579691836 0.09928136384904244 0.3704715324905921
0.43847302814958194 -0.4381640985855225 -0.265655430561832
-0.0988484625505385 -0.4279704227436145 -0.709042338346857
-0.33054163650687646 0.3828487104940074 0.47625541376566144
0.017459019343589656 0.31308861579559866 -0.18444394678013418
-0.3874506612492352 0.4384960229067773 -0.8863559108523258
-0.3942031216882551 -0.44023162718900094 0.04217438424039316
-0.33822188541012654 0.03367632179862993 -0.6939897703323643
0.4774001527651696 0.3626833082057292 -0.6412417968703137
-0.4091857056591098 0.3363833046065498 0.7596647964264149
-0.3867848130626218 0.34550922389695155 -0.557550878399725
-0.4086938178095395 0.2848490544155933 0.3253118289030101
-0.3373540832690147 0.08795194695609403 0.5262040254821901
-0.3300257541280589 0.3760322646436613 -0.9999980004558963
-0.394782989478399 0.4546043502081526 0.7051072355502946
-0.1487870765465474 0.2547179243132566 -0.0799557700844208
-0.37654314816221907 0.38582003303246865 0.8136084972626242
-0.4979474679773013 0.3874036719627925 0.8289370023634611
0.42572193539872916 0.42295156704271436 -0.980980336483282
-0.31032024698368776 0.026274009525828125 0.3279832198258797
-0.07913695677385557 -0.05581727366160515 -0.07710242064809228
0.11877192000223949 -0.3566306882030897 -0.7331028525496188
-0.3483075858704216 0.3360933707114778 0.017771947995856907
0.38006834441747284 0.1681476623329881 -0.18444194723603025
0.03869017863927024 0.2854569158231923 -0.18465989754336018
-0.24619286802609008 0.19053255857664458 -0.18444394678013418
-0.3490334203801534 -0.16151917362841273 0.6118724930715798
-0.38547511167453824 -0.2995716976529351 -0.09564819221217567
-0.05805776283007476 0.21427514526687919 -0.07892000623857764
-0.13359454044477861 -0.42795442639078296 -0.6999584094826381
0.2642567494611229 0.3658745805956242 -0.08031168893492288
-0.34474439827719283 0.3363833046065498 0.18979872589049696
-0.27809959329272926 -0.3587222113358155 -0.44944752596408033
-0.36695533418380616 -0.21854017284059235 0.7432985279356308
-0.3667993697436985 0.2926312800681445 -0.18444194723603025
-0.34895743770420345 -0.44835177579511876 -0.8648948039846917
-0.4155702499830039 0.21963992209776176 0.9036939577776267
-0.27537621422315717 -0.3893072379497475 -0.07343725630556237
-0.4048546931299664 -0.33624733560748155 0.5327685287754392
-0.3914897403392027 -0.16223301087352085 0.923215506864435
-0.28590181438631995 -0.40387391674698175 0.06644884966227697
-0.4020133409582616 -0.06991405959441248 0.27627500929788007
-0.3197480974337852 0.4484897443382909 -0.7318811311021088
0.3099223377070028 0.42841032244648225 -0.18465789799925622
-0.39670455136228944 -0.24356246775735135 -0.15454276424975114
0.4682342425926889 0.351273909548623 -0.0796758339098686
-0.3903340038471229 -0.41686895387851575 -0.8662225012697107
-0.35437020359358073 -0.14494495255081843 0.6510175679944973
0.04001787592428926 0.35676665720215794 -0.7167225872501071
-0.4684581915323307 -0.3050864402916135 0.7883482565974959
-0.4087018159859553 -0.25637354683132246 0.3253278252558417
-0.4773481646184671 -0.16898147222433285 0.8287410470412746
-0.3054073671202966 -0.358738207688647 0.29194543644049153
0.29903082097281825 -0.3713713273373671 -0.08027769668515583
0.4070661889089288 -0.37404071871613276 -0.837383076658522
-0.3738937522244929 0.041912443962776505 0.26094050556473125
-0.3699506512515147 -0.07575272837792983 -0.7776406979208741
-0.3699506512515147 -0.2514106783653327 -0.7575232846910905
0.2818827307373919 -0.44836577260384636 -0.13782257645256887
0.3114059994321295 0.07430705799077812 -0.18444194723603025
-0.2818587362081446 0.34915439279844196 -0.03867918114669859
-0.4215528859420053 0.23315484069632125 0.947553957697645
-0.39033200430301895 -0.21249955010257662 -0.14424511211443797
-0.3112880263299968 0.15207132773727594 -0.18444194723603025
-0.3903340038471229 0.42245168101672825 -0.20914831418436602
-0.38132205857064594 -0.296022506868434 0.8486545067724559
-0.27822756411538174 0.3763781857736437 -0.36144758994949155
0.2990328205169222 0.03682960285055009 -0.18444194723603025
0.5065095158303906 0.38260876520153414 -0.1696353231463227
0.4000457895599803 -0.1901066556825044 -0.18444194723603025
-0.34431649583894874 0.4484897443382909 0.039652959125319395
0.29518569766093333 0.4247011681336656 -0.7960245064125381
-0.48415661229239737 0.3472908176935659 0.9907601066956734
-0.3062131833941862 -0.07362521345133309 0.2978600878999588
0.24791047641137823 0.292471316539829 -0.07852609605010064
