-0.06522530760142421 0.18817183862567513 -0.2350756160782081
-0.5303314662326216 -0.22175564156868477 -0.883654181868748
-0.06422789766594073 -0.41754811227414473 0.0002105765469608569
-0.5402915598310906 0.16206010670385526 -0.8076009239797556
-0.514988160133815 0.4211295842591305 0.0002105765469608569
-0.04549419811542545 0.26972335629943905 -0.22600188677546468
-0.09278763571828023 0.3333945251498366 -0.2633522377697233
-0.07795253849332076 0.19048879089305704 0.2485771652149034
-0.40557219017015994 0.46968053870140625 0.0002105765469608569
-0.4127081230385689 -0.17829477915423242 0.9988785390795618
-0.4127081230385689 -0.09771065908088226 0.7056770332606702
-0.4127081230385689 0.4301572946481004 0.3861026882048523
0.24768129701307234 -0.4107183052234469 -0.22748149489440156
-0.7862456469609009 0.13397486366896794 0.14601401175883294
0.10825799403554863 -0.43797250670025384 0.0002105765469608569
-0.5009233795089783 -0.3274590856842162 0.8526124237061433
-0.26690649857091264 0.18805579093007224 -0.843089509788523
-0.5333146923385511 0.36020054242293587 -0.5512215520578957
-0.4127081230385689 0.3975358872496596 -0.2708073018010402
-0.642452547997227 -0.48660549485838683 0.0002105765469608569
-0.7431199222880603 -0.4049829479916246 0.0002105765469608569
-0.4127081230385689 -0.3660259366599673 -0.8734649941125803
0.4002259928830749 -0.4639251732462042 0.0002105765469608569
-0.5361078403223726 0.353789907652045 -0.6538497322399506
-0.5389209965295737 0.27271558610588953 -0.7571892047631577
-0.6479478065484915 0.2458855589647345 -0.3119732209938284
-0.44788558097378023 -0.22175564156868477 0.977265656184692
-0.4127081230385689 0.20330605879016275 0.6937941493954016
-0.4127081230385689 -0.425795501951302 0.2820709311527038
-0.29335366835769505 0.31109435978187033 0.41607400641663733
-0.4127081230385689 -0.10522274654883161 -0.7051798289096818
0.24768129701307234 -0.0788108912763146 0.3377608196968955
0.6756201798939364 0.13394084968922224 0.0002105765469608569
0.24768129701307234 -0.27777866703215026 -0.3261510480807612
0.24768129701307234 -0.46737659177922136 0.046299629147579714
-0.7475177297869424 0.1882258608288006 -0.22623798381134644
0.7879103311461011 0.035924865119564116 -0.0444652752281187
-0.08492840557469121 0.26972335629943905 0.2651149622494846
0.1403331769357206 0.19983063038908988 0.0002105765469608569
-0.2851487961552198 0.38672744497988676 0.548684509333336
-0.5306475961620226 -0.2725305100396263 -0.8521672407359424
0.24768129701307234 -0.11762484381080628 -0.34062799810722205
-0.4127081230385689 0.0010257215715658856 -0.42411431098181346
0.010721906703655193 -0.41634761887135613 0.0002105765469608569
-0.4127081230385689 0.31646856858168704 -0.8657688309895367
0.019580547605065675 0.26972335629943905 0.11899390649556973
-0.42890778109803135 0.3757699414459343 0.2925572410260618
-0.4127081230385689 0.41906073396165827 0.24317294408001697
-0.5323603000833343 0.34901594555362253 -0.5161631430517942
-0.5344091421574267 0.36316175948314755 0.5918862652550199
-0.4495992853062609 0.17349580677658516 0.3980365930397394
-0.2661911045439676 0.13737686189023685 -0.8546522620797148
0.5413069771676159 0.035924865119564116 -0.3421786354191572
0.24768129701307234 0.10821327565629472 -0.22312470425344813
-0.53805263963489 0.31231286058570074 -0.7253331119089946
-0.48502584562255097 0.33937998517390644 0.31153304007947275
-0.38421341171221374 0.16796453342323694 -0.400474595058569
-0.4127081230385689 0.024457752136127924 0.7049827479093909
0.2291036616049196 -0.47029579157033546 0.0002105765469608569
0.48683859066076157 -0.4502485521549357 0.0002105765469608569
-0.4127081230385689 0.16162792907885137 0.9471212668406715
-0.2529481006693752 -0.465947004218734 0.0002105765469608569
-0.5414740458328373 -0.17047056340155808 0.8514879615521981
0.8064879665542538 -0.10536980699067319 0.0002105765469608569
-0.2956558145397759 0.2885290854541216 -0.37841953042700543
-0.7246093144282301 0.035924865119564116 0.27159962744688076
-0.029289538000118062 0.26972335629943905 0.20778039774347262
-0.12868238846165775 0.035924865119564116 -0.39563860746766916
0.7011516733377419 0.035924865119564116 -0.26477582286319673
-0.4910433188040285 0.035924865119564116 0.40730040046459104
-0.2647264025514487 -0.1979058392999523 0.8780548805559086
-0.4127081230385689 0.41906073396165827 -0.2427277611098161
-0.011166089262686984 0.26972335629943905 -0.18477994455721297
-0.27722093780543805 0.4028200590442672 -0.6763709884762638
0.24768129701307234 0.06501876271147439 -0.28658778758069564
0.17470530387989464 0.035924865119564116 0.33377818283314453
-0.6052822710133865 0.035924865119564116 0.374182789126331
-0.6995350088886533 0.2924336902466914 0.0002105765469608569
-0.4127081230385689 0.2984841769967456 0.8806319397272281
0.004610394872292528 0.27919324842510274 0.16387535276998855
0.7833784685505744 -0.2395299468081382 0.0002105765469608569
-0.7845849644203768 -0.30202263130146495 0.0002105765469608569
0.24768129701307234 0.0021253735285201953 0.3268363297315197
-0.4127081230385689 -0.26646001506619227 -0.7318517910861364
-0.7984166492428388 0.035924865119564116 0.04495707735879453
-0.7981925571409849 0.08121087767072264 0.0002105765469608569
-0.44232729651886926 -0.22175564156868477 -0.7238144877544671
-0.631750149311367 0.035924865119564116 -0.3595297667341277
-0.5411479117917464 0.008320019528025992 0.8395730645295217
-0.4127081230385689 0.2711339360477156 0.675816760688643
0.24768129701307234 -0.4599595433723261 -0.08850957743632629
-0.35248787251560393 0.35425209761211857 0.3037788531086277
-0.5302614374507924 0.313751451846709 0.4394476129689303
0.24768129701307234 0.04976743441554476 -0.3049023148514039
-0.6403486833088401 0.34570858622894013 0.0002105765469608569
-0.4127081230385689 -0.20307996586597094 -0.4167152699759601
0.6300814634814909 -0.4039155092743118 0.0002105765469608569
-0.5410758821875791 0.031594185210121334 0.8369079691753312
-0.4127081230385689 -0.34053045801824555 0.9058012843278588
-0.4127081230385689 -0.1728795534964871 0.7051087997166837
0.07855578642822197 0.035924865119564116 0.3532741956944305
-0.4127081230385689 -0.07846574942301288 -0.7053549008642552
-0.4127081230385689 0.39336617349730735 0.7854318124749273
-0.28109993207208167 -0.2253801312339372 -0.843718768413818
-0.4127081230385689 0.4572884455511215 0.6260553087318889
-0.7856954208179563 0.13389503085768248 0.0002105765469608569
-0.4127081230385689 0.456822253946372 0.14010558339477533
-0.797460256165284 0.09909352743977773 0.09414539375683412
-0.41326035000385164 0.465621870588812 -0.04940660611511326
-0.011166089262686984 0.26972335629943905 0.18522212629390686
0.33431690424764576 0.035924865119564116 -0.3330328765122465
0.24768129701307234 -0.20633130216518997 0.34017681267000743
0.10500065526931568 0.035924865119564116 0.3473247504724442
0.24768129701307234 -0.3005800383957807 -0.3181947780537801
-0.5612861886235242 0.035924865119564116 0.3894090471183657
-0.4127081230385689 0.4463219383166482 0.1854572229186196
0.6797218656867973 0.035924865119564116 -0.2857834570008273
-0.4127081230385689 0.010238608067915884 -0.7049007141935336
-0.03250686031959136 0.1989602726720682 0.20195400309527223
-0.8066820463210379 -0.037970806001266545 0.0002105765469608569
-0.315760177432925 -0.22175564156868477 0.7850776669211047
-0.12027393258629299 0.23860556688799095 -0.29154782615655034
-0.2747225109520013 0.39326813320274634 0.7171997691051022
0.24768129701307234 0.09666813060167727 -0.24342704851694041
0.42469805089891943 0.035924865119564116 0.3437302731422615
0.15206599912564067 0.035924865119564116 0.3377408114735157
-0.41271912756142776 0.46312184307750487 0.09349982842948458
-0.4631768656917994 -0.22175564156868477 0.7390037305332492
0.3343199054811527 -0.4687921735833428 0.0002105765469608569
-0.2678755968703137 0.24023023462643145 -0.8274310741714844
-0.2918960692844759 0.32537122757453313 0.43963068821285556
-0.29314268164215496 0.3131622096681736 -0.41903722429918694
-0.7535732185928418 0.035924865119564116 0.2264830845477492
-0.4127081230385689 -0.11417342527778919 -0.42528079040485633
0.7914217743492576 0.035924865119564116 0.028192987317787667
0.34439504636405566 0.1592039328163875 0.0002105765469608569
-0.28412017339126383 0.5047859670324504 0.0002105765469608569
-0.4127081230385689 0.21327415567798363 -0.9248971327215485
-0.5402655491406969 0.16537446890672064 0.8070657040043459
-0.2647829257824966 -0.19210945698682164 -0.8774136169965856
-0.4127081230385689 0.1868833090400154 -0.9363338332054474
-0.0017812320863875234 0.2453893550249152 0.17043204757155198
-0.4127081230385689 0.4385687517569721 -0.40893407190355235
-0.4555727403963029 -0.3611849470132225 -0.8521672407359424
-0.4127081230385689 -0.19418430975130782 -0.7045005497259373
-0.4127081230385689 0.2917203970832012 -0.5334002274934998
-0.5407557506135022 0.10019658079470661 0.8251281276604686
0.07986532464843048 0.035924865119564116 -0.35253189060703943
-0.5362278896626513 -0.22175564156868477 0.8367318968095888
-0.30996529573654774 -0.31309218088634433 -0.8701546335543908
-0.6508650055172676 0.035924865119564116 -0.3454329729518832
-0.5397973567136093 0.21755391465892482 0.7898306203849783
-0.4127081230385689 0.4211615974165382 0.3639625886239245
-0.4127081230385689 0.16162792907885137 -0.9466780846928087
-0.10896428432085588 0.4436618450183025 0.0002105765469608569
-0.7772689575415496 0.035924865119564116 -0.1461860824798992
0.6752730372182967 -0.3745254299517102 0.0002105765469608569
-0.26559866104969143 0.06119220999830928 0.8646773824041681
-0.0761778090795317 0.4104391905072985 0.0002105765469608569
-0.4620804150505858 -0.22175564156868477 -0.737766221917208
-0.4127081230385689 0.4069767674514225 -0.3326037001207496
-0.6495224537284824 0.035924865119564116 0.34696060080693175
0.6292761324904537 0.035924865119564116 0.3186259552676151
-0.0482883465104158 0.1902516934460063 -0.21770147530635087
-0.5404396206841012 0.1433515174736817 0.8134943461762786
-0.4127081230385689 0.25015731465632374 0.493566855977807
-0.27114173925483376 -0.24334951665134372 -0.876951427036512
-0.4757710418982202 -0.3491389961274084 -0.8521672407359424
0.24768129701307234 -0.10474755124356114 0.34013779663441684
-0.03776902306848114 -0.4143808105131209 0.0002105765469608569
-0.7411721217420361 0.1941502957715621 0.23549078671333923
-0.4127081230385689 0.2800455987410826 -0.6724793890288909
-0.5309717293807755 0.32621257336765414 -0.46510915986470436
0.7308728887572792 -0.33025023284569965 0.0002105765469608569
-0.4127081230385689 -0.22601639273741514 0.4124745270306096
0.24768129701307234 -0.3509917576123787 -0.29105962550608294
-0.6760633620417992 0.035924865119564116 0.32278566490827737
-0.030698116926056614 0.035924865119564116 0.37787630716224374
0.24768129701307234 -0.3882900872258499 -0.2575458513449027
0.24768129701307234 -0.09229143177846097 -0.3386331782362551
-0.4061574307040194 0.38004970042687547 -0.2898811411490122
-0.4127081230385689 0.4534248576164804 0.4635495188522484
0.24768129701307234 0.08329453405349596 0.26357733028274627
-0.4127081230385689 -0.2788921246632366 0.9621354376648803
0.807308303712826 -0.1335964081237389 0.0002105765469608569
-0.1299048909101641 0.25919702997932154 -0.30142788686150007
-0.8055685886899516 -0.1080739183804544 0.0002105765469608569
-0.28145587836600844 0.035924865119564116 0.4163461182546027
-0.4127081230385689 -0.412070861123922 -0.3006685747842363
-0.2934933257568861 -0.2917304011948912 0.8734830015136221
0.24768129701307234 -0.21149242338601168 -0.339168398211665
-0.4127081230385689 0.3073838347560847 0.5511955413675022
-0.7090299112935416 0.035924865119564116 0.2890417961782293
0.6004622900011906 -0.4172800020808553 0.0002105765469608569
-0.4127081230385689 -0.3306173837447191 0.7882719797836912
0.25277739150790973 -0.474323446936691 0.0002105765469608569
-0.4127081230385689 -0.13761706061191153 -0.42424036278910626
-0.19349802768938035 0.4949779359316679 0.0002105765469608569
-0.7986947635478182 0.035924865119564116 -0.043176745642459
-0.5414040170510079 -0.0919552936256802 -0.8485517547712109
0.24768129701307234 -0.42514523469145826 0.20278634518787228
0.798194557963323 -0.20044088120217415 0.0002105765469608569
-0.16266135381641855 -0.4423883216001777 0.0002105765469608569
-0.48528295129298143 0.20033983967410604 0.38403783955205595
-0.2648102370074101 -0.1685677813581382 -0.8769754369045677
0.17453023192532133 0.035924865119564116 -0.3333640126091823
-0.4127081230385689 -0.2860540682220393 0.7480884643588516
-0.22530830171200367 0.26972335629943905 0.3307349320570755
-0.4127081230385689 0.19331195121194808 -0.6949546263514305
-0.4127081230385689 0.4288037383364563 -0.3822060867016343
-0.2648500533719359 -0.12501888276081474 0.8766012831273654
-0.46314785376789863 -0.22175564156868477 -0.9659169918836642
0.24768129701307234 -0.24963710084844878 -0.33337101548736525
-0.6881973491104845 0.22924872122442322 0.2876782357548953
0.24768129701307234 -0.4556797843913849 0.11021129684300253
-0.2678755968703137 0.24023023462643145 0.8278752567305163
-0.3847436296317787 -0.22175564156868477 0.7235323718048119
-0.4127081230385689 0.2412116379832111 0.6848274640877402
-0.26493108667662413 -0.07813161209257007 0.8754468086383504
0.18370900440080876 -0.4590561720867277 0.0002105765469608569
-0.4127081230385689 -0.14869361307497386 0.7052948761941159
-0.30476675913800577 -0.22320523735255193 -0.916981879552496
-0.07711119270019981 0.34120673596848305 -0.24726862740586375
-0.062492184287742274 0.26972335629943905 -0.24376318666972122
-0.3719873868159814 0.36582285319266217 0.2977443729372773
-0.6686393107567211 0.035924865119564116 -0.3295354390654559
-0.2950419622464834 0.2945475590467682 0.38878679137125366
0.7662414252257678 0.035924865119564116 -0.13597288485567563
0.798304603191912 0.019865064541526537 0.0002105765469608569
-0.4127081230385689 0.07392308238686097 0.7032120201402777
-0.4127081230385689 0.1334740578377713 0.7005459243749181
0.7491744106827908 -0.30848128580846734 0.0002105765469608569
0.08368189325812908 0.23906475561455756 0.0002105765469608569
-0.7931184716918654 0.035924865119564116 0.07071926561816912
0.24768129701307234 -0.42514523469145826 -0.20234516386234738
0.24768129701307234 -0.044434762687464574 0.3335570919647976
-0.4127081230385689 0.3207483275626282 0.5701973511113069
-0.4309186075477021 0.45931627899066513 0.0002105765469608569
0.24768129701307234 0.08329453405349596 -0.2631321473125454
0.7720638182292922 -0.2655796532374807 0.0002105765469608569
-0.4127081230385689 -0.32466193605571897 0.9231294061859425
-0.4127081230385689 -0.36051066988532293 0.8244538505325689
-0.3275765339554557 0.3312286349689722 0.3157847875476822
0.24768129701307234 -0.4375513335981089 0.1739735031097782
-0.5414930536450482 -0.20099710981213284 -0.8517130540652208
-0.4127081230385689 -0.4619473603651101 0.20835463375447316
0.8049373292423186 -0.07832969350403018 0.0002105765469608569
0.039614781675268516 0.26972335629943905 -0.03518936282812231
-0.8007386035660656 -0.18602695707935965 0.0002105765469608569
0.6500086535566117 0.035924865119564116 -0.3072502798650245
-0.4127081230385689 -0.48711070249872707 -0.1058435016791901
-0.4127081230385689 -0.1318877058471032 0.9969827599143248
-0.3957361475566458 0.3761040787763771 0.29238416989382643
0.27968445030907707 0.14980697066494328 0.0002105765469608569
-0.3980631039357176 -0.22175564156868477 0.9909452785094675
-0.41291320732821196 0.46524371516693364 0.06252269682839652
0.24768129701307234 -0.2618961393132578 0.3310140467732239
-0.5375544348727327 0.035924865119564116 0.395981748498633
-0.5157114574089952 -0.22175564156868477 -0.7917384044842429
0.39082012707222663 0.035924865119564116 0.3403628891474397
0.24768129701307234 -0.15809247600763915 -0.34179147629675793
0.24768129701307234 -0.4616802505829897 0.07940343481170768
-0.41045519708600237 -0.22175564156868477 0.706233261870629
-0.12513393004524861 0.2885671010785433 -0.29653387542279874
0.24768129701307234 -0.02121541953742991 0.3303067560767476
-0.5361538592361461 -0.25019332945840744 -0.8521672407359424
-0.4127081230385689 -0.018040014445937304 -0.9868605997064794
-0.4127081230385689 -0.3207513287961352 -0.9297201149672516
-0.4956972315621721 -0.22175564156868477 -0.9381385749543062
-0.4127081230385689 0.3289557007930259 0.6078708349131494
0.7120081353436262 -0.3468150409818436 0.0002105765469608569
-0.4666953117731388 0.18434226467077966 -0.39193508532006655
-0.4346551432638815 -0.3712010636371549 -0.8521672407359424
-0.030620084854875364 0.3620012825271186 0.0002105765469608569
-0.5249002339961725 -0.22175564156868477 0.8087553984687708
-0.4127081230385689 -0.029451104403910043 0.7058711130274543
-0.3982961997380924 0.16231421114077885 0.4038669893326158
0.7290291309728298 0.035924865119564116 0.22782063428068944
-0.5585540657210114 0.2653855734706964 0.3414073184078657
-0.4127081230385689 -0.2397790491892168 0.9889954771411051
-0.5412679611320254 -0.032987958050758895 -0.8435296907028789
-0.3861462060907033 -0.4947938602765737 0.0002105765469608569
-0.7771399045007499 -0.3324391324834507 0.0002105765469608569
-0.7288360516172148 0.25629383676691114 0.0002105765469608569
0.27679826408653957 0.035924865119564116 0.3257138683999124
0.24768129701307234 -0.1303140590782812 0.34166542448946524
0.41160466951917235 0.16894593678001657 0.0002105765469608569
-0.25131049861493077 0.26972335629943905 -0.33665236412165395
-0.4127081230385689 0.4442891028212595 0.680029492121262
0.2294137890673067 0.15390035304510152 0.0002105765469608569
-0.4127081230385689 -0.2612838876778356 0.40302064148364986
-0.3059442430839075 -0.22175564156868477 0.9197120016326712
-0.5349953831024552 -0.2558536558525555 0.8526124237061433
-0.2648884691608251 -0.10128512818768519 0.8760840705529974
-0.06667590379646035 0.26972335629943905 0.24832906324499376
0.02897941053773099 0.2921065557944315 0.0002105765469608569
-0.8047842663334631 -0.13183068241047072 0.0002105765469608569
-0.27429573554730996 0.3893265131969239 -0.7236524211450907
-0.755434983778333 0.21327015403330768 0.0002105765469608569
-0.19983633273275317 -0.4525955167573874 0.0002105765469608569
-0.4127081230385689 -0.026296507864732428 -0.42489063004895006
0.4538710409978502 0.035924865119564116 -0.3452228866063952
-0.5295491446984711 0.3011862875641889 0.4132868608998299
-0.4127081230385689 0.43847071146241107 -0.6978438138074748
-0.5414900524115411 -0.19611310248512145 0.8520501926291706
-0.4127081230385689 0.4381385749543062 0.40809472693276944
-0.4309186075477021 0.035924865119564116 0.41984555652373134
0.5777159412518545 -0.4250331886405313 0.0002105765469608569
-0.2659773166771543 0.11469614011358666 -0.8581076822574077
-0.5170309997408936 -0.22175564156868477 -0.9103551559691033
-0.4127081230385689 0.3289557007930259 -0.6074286531764554
-0.4127081230385689 0.0046233001763724595 0.9836782917779209
-0.20482888467160004 0.035924865119564116 -0.4082978104000744
0.030359977950937807 0.26972335629943905 -0.07497341407318403
-0.788653636644661 0.035924865119564116 -0.09197930349373587
-0.7519955701793438 0.035924865119564116 -0.229634379730069
0.7731142499567322 0.035924865119564116 0.11040237537627971
-0.49188366418598045 0.20741274663886855 -0.3799041406017873
-0.5374123764867361 0.3347010621365381 -0.7018194477930428
-0.4127081230385689 -0.4534728773525919 0.22967139494332178
-0.8033886927527214 -0.1566528843354619 0.0002105765469608569
0.7347494820371173 0.09042346404372195 0.0002105765469608569
-0.3333662135137542 -0.4838013423517066 0.0002105765469608569
-0.2648975729024629 -0.09793275036039815 -0.8755688588009671
-0.7924221855182481 0.11733272374946101 0.12126784108268505
-0.3553445466086562 -0.22175564156868477 0.7451012366082461
-0.09370301193790649 0.035924865119564116 -0.3894650701438291
-0.2874927595241645 0.36756757027138154 -0.5103547558046357
-0.47065894082467896 -0.22175564156868477 0.960810893277137
0.24768129701307234 -0.43740227233392925 -0.17391848049548359
-0.5346592449496743 0.3623694338373071 -0.600661872029404
-0.17687399521203215 0.035924865119564116 0.4043371825820413
-0.49024298986883613 -0.22175564156868477 0.9438629276632697
-0.11460260166928608 0.30753389643143325 0.28617561817907167
-0.4807410845857648 0.035924865119564116 -0.41059075279940055
0.15609765613667217 -0.4515490866746233 0.0002105765469608569
-0.4127081230385689 0.1400551626718581 0.9549324772481491
-0.35821372584132083 0.35823773570937656 -0.3012558161404337
-0.32639084663796825 -0.3309925379330906 0.8677246348249131
-0.3728167276750745 -0.22175564156868477 0.9738202401186888
-0.3198419550435229 0.3202281137547532 -0.3210759622204726
-0.2665406482064129 0.16505133609913672 -0.8490029402084256
-0.4127081230385689 0.3991795628003109 0.26923465544338726
-0.4127081230385689 0.26503542956154974 -0.5071534400638662
0.0014290873549028644 0.2854428169977861 -0.1666975126777105
-0.28182102844268997 0.4012614184429801 0.6024706154229389
-0.4127081230385689 -0.24167882999912965 0.717436866552153
-0.5313238741122601 0.33231708232083385 0.4785356781637254
-0.7636223487853508 0.035924865119564116 -0.199557017934371
-0.5414380310307537 -0.11886635407152342 -0.8497582506410135
-0.5236537216796103 0.2786480243380029 -0.3427568730748337
-0.4127081230385689 -0.30211566954018104 -0.38692202495225536
-0.31985536055318736 0.035924865119564116 -0.41745157259633703
-0.75280190158155 0.18301471904952935 0.2189349822777162
-0.5351494464224797 0.35998645443277183 0.6191094539855881
0.03446666579964365 0.035924865119564116 -0.36297418238896184
0.20596115003266346 -0.46471449765853773 0.0002105765469608569
-0.4127081230385689 -0.1252609822637104 0.7054749502045342
-0.4127081230385689 0.13683744018791724 0.40974140371692774
-0.020850069378514583 0.3221749138896086 -0.18955290624446644
-0.279088905540177 0.26972335629943905 -0.3431790465881477
-0.03931565873574041 0.33765727714090493 0.2089388738771636
-0.29021147691701293 0.3418089834922153 -0.4664146964402369
-0.1780024590106534 0.035924865119564116 -0.40408107732277965
-0.4127081230385689 0.4456176488536788 0.43188650535370043
0.04122644406851217 0.26972335629943905 0.028403773951093957
-0.4127081230385689 0.27882809834842115 0.8935132339391492
-0.4127081230385689 -0.5002581060815996 0.0002105765469608569
-0.045229089155642985 0.26972335629943905 0.22615094803964436
0.649239337367658 0.14817580025390434 0.0002105765469608569
-0.5414790478886823 -0.1775944913359391 -0.8512018439578667
-0.33699250391911073 -0.22204375998535406 -0.9461348614280469
-0.4127081230385689 -0.35369386817982196 -0.8140265649181814
0.71685012540154 0.10488410736812827 0.0002105765469608569
0.6938456705706045 -0.36085080968277966 0.0002105765469608569
-0.4127081230385689 0.0388402633482361 0.9778058782159469
-0.7924191842847411 0.10695225737778224 0.0002105765469608569
-0.4127081230385689 0.27882809834842115 -0.8930710522024552
-0.4127081230385689 0.0502581160857112 -0.9753438663290612
-0.09848397691451188 0.3286455733306389 0.26963982196682845
-0.4127081230385689 -0.018040014445937304 0.9873037818543422
-0.28535127937582344 -0.22488092606061091 -0.8979400533619317
-0.20482888467160004 0.035924865119564116 0.4087409925479373
0.24768129701307234 -0.40504097183942606 0.2364071633441345
-0.4127081230385689 0.095711137277421 -0.966562257087663
-0.0960809892865968 0.2020115267374891 0.267173808435267
0.8016959970547897 -0.029772836635857364 0.0002105765469608569
-0.5678969056282132 0.26400300523515163 -0.33890929171889644
-0.4127081230385689 0.42498316808208175 0.7328211895088882
-0.12027393258629299 0.23860556688799095 0.29199300912675114
-0.4127081230385689 0.13683744018791724 -0.40929622074672684
-0.3374648980731081 0.19736261603519045 -0.3851452947161283
-0.2689413348886393 0.2888222059266359 0.8106511776340077
-0.4127081230385689 0.061666654995203005 0.9737322039358177
-0.5428876268146209 0.035924865119564116 -0.39435007788200943
0.5132404418215887 0.035924865119564116 -0.3449757850476545
-0.4127081230385689 0.3925078207143136 -0.7860350604098284
0.022524757675404558 0.26972335629943905 -0.10682190380246276
0.24768129701307234 0.13996692640675315 0.10462700169769781
-0.2848174599760502 -0.22175564156868477 0.8988354213581784
-0.10877320578757871 0.21786704335481882 -0.27975097765181484
-0.4127081230385689 -0.27917524102406094 -0.3964649470932553
-0.4127081230385689 -0.05066732427027511 -0.4254148455015011
-0.5409718394260041 0.059861532089688835 -0.8326392147172488
-0.31320462710173885 0.30838924798092016 0.32769368210334454
0.7409450284066752 0.035924865119564116 0.2058876198117427
0.24768129701307234 -0.3215526581424966 -0.30861584111069645
-0.7269022568275562 0.20585010439290546 -0.2524437543830514
-0.5317800616053199 0.33992120761633027 -0.4947893584263132
-0.3275765339554557 0.2082160768075679 0.3799311517033501
-0.3842104104787068 0.035924865119564116 -0.42047181391551924
0.7586983250115799 0.035924865119564116 -0.16074906786689325
-0.17098367429013325 0.4884062349625696 0.0002105765469608569
0.729124170033884 0.035924865119564116 -0.22723039169098497
0.24768129701307234 0.1065157779847517 0.227026307812511
0.24768129701307234 0.14433312091269507 -0.029934202957415446
-0.4127081230385689 -0.35155598951168937 -0.8936983100054122
-0.4127081230385689 -0.412070861123922 0.30111175693209913
-0.2648078360206045 -0.15082548927609252 0.8771234977575785
-0.4364278718553326 0.37247358664411073 -0.29383276526652446
-0.008363937578344721 0.30357927108041405 -0.1767456424590506
-0.8060477856398981 -0.08396801085246039 0.0002105765469608569
0.24768129701307234 0.14400748707718872 0.03992630971329222
0.623999963985198 0.15888540190018094 0.0002105765469608569
0.047469009763012576 0.26972335629943905 0.0002105765469608569
-0.413953634943962 0.4657179100610351 0.037312735534304656
-0.4127081230385689 -0.2922866298048499 -0.7501733212350276
-0.5413700030712623 -0.07303751842007068 0.8476964032217242
-0.5237867763650862 -0.22175564156868477 0.8990415060589904
0.7539163596238054 0.0741403716927657 0.0002105765469608569
0.24768129701307234 -0.4711621476426812 -0.02222603490034399
-0.5215958759049969 0.2563348536248398 -0.3543916549701927
-0.029289538000118062 0.26972335629943905 -0.20733521477327177
-0.4127081230385689 -0.44309461188548493 0.25205659526065216
-0.1540295061270182 0.035924865119564116 0.4004775962920761
-0.25131049861493077 0.26972335629943905 0.3370985475030238
-0.5369982062627741 0.34372176964732504 0.6870293690706882
-0.5375664398067607 0.33034427149558465 0.7078799386547872
-0.30148571062706775 0.2589229173190181 -0.3530421003032246
-0.34886358293258535 -0.2219027020105264 -0.7501713204126896
0.24768129701307234 0.1181813725441156 0.20140377695232747
0.5413069771676159 0.035924865119564116 0.3426228179781891
-0.37300680579718265 0.17315066492328346 0.3982156666389887
-0.2848174599760502 -0.22175564156868477 0.8359235645850446
-0.4127081230385689 -0.062432159617602866 0.9928520621975634
-0.4127081230385689 -0.042952153335020726 -0.7054649460928442
-0.13004294765148477 0.4632208837832349 0.0002105765469608569
-0.4127081230385689 -0.20589812412901706 1.0
0.013131897209753194 0.26972335629943905 0.14426729385777562
-0.4127081230385689 -0.2401321943318704 -0.7152829813053165
-0.5151412230426706 0.24318845045313622 0.36169365609265414
-0.807308303712826 0.011696407223368774 0.0002105765469608569
-0.4127081230385689 0.4517361635632245 0.6525181849740245
-0.4127081230385689 0.238809650766465 -0.4824993072152654
-0.6208886852496377 0.3598574013919721 0.0002105765469608569
-0.09634809906871726 0.20225862829622973 -0.26700373853653847
-0.4127081230385689 0.0010813444325617578 0.7055199687071387
-0.7667076168305174 -0.35970633930545454 0.0002105765469608569
0.05363954585334571 0.035924865119564116 0.35899854840339385
0.6936235792910886 0.035924865119564116 0.27339736631755657
-0.2731292561242671 0.3743523588194748 -0.7425101716805607
-0.08685219625265987 -0.4221710122860496 0.0002105765469608569
-0.4127081230385689 0.1766991233396926 -0.4246005108099429
-0.5394812267842083 0.24190792415682846 0.7782768717943075
-0.11004372797219658 -0.42788836211683007 0.0002105765469608569
0.19743264481701983 0.035924865119564116 -0.3295394407101318
-0.4127081230385689 -0.33953204767159306 -0.7957320458708529
-0.50472694277348 0.035924865119564116 -0.4047403482831443
-0.4127081230385689 0.32414572389251983 -0.5768540870297691
-0.4127081230385689 -0.22712484831265656 -0.41176023345595036
-0.2746967003438413 -0.22175564156868477 0.856836159661621
0.5482548327362545 -0.4337587748564661 0.0002105765469608569
-0.33653521597376523 0.3412647598162845 -0.3101054533413232
0.7402947611468313 0.035924865119564116 -0.2066719421682311
-0.1974241413220834 0.26972335629943905 0.32359399713282166
-0.7074522628800437 0.21880342820899387 0.2721468523563185
0.02483970912044851 0.035924865119564116 0.3656292736314626
-0.5384838168487249 0.2932220142478558 -0.7411526137242407
-0.4127081230385689 0.18558077369798984 0.43331909414769476
-0.7419894576671013 0.23690786913421416 0.0002105765469608569
-0.020850069378514583 0.3221749138896086 0.18999508798116033
0.19826498690961988 0.16900796227249398 0.0002105765469608569
-0.5412679611320254 -0.032987958050758895 0.8439728728507417
-0.4127081230385689 0.2984841769967456 -0.8801877571681962
0.24768129701307234 -0.4474704103386492 -0.14294775152587708
-0.7954194173805434 0.10711172291811932 -0.10563441574487109
-0.2731292561242671 0.3743523588194748 0.7429523534172546
-0.4127081230385689 0.027422570676548033 -0.979351513472037
-0.7862456469609009 0.13397486366896794 -0.145576832077984
0.6763624849813273 0.035924865119564116 0.28886272257898005
-0.4127081230385689 0.45680224572299216 -0.6285193214411123
-0.2760707650844497 0.40056113062468673 0.6954068121998143
-0.44232729651886926 -0.22175564156868477 -0.9806640529257524
-0.5333146923385511 0.36020054242293587 0.5516637337945897
0.24768129701307234 -0.3283854664267014 0.3056166084260632
-0.4127081230385689 0.037401071840526434 -0.7041394012939318
-0.46424830605378814 -0.3564690087626015 0.8526124237061433
0.2516789400443582 0.1457662099122739 0.0002105765469608569
-0.30937705396918136 0.23939088965564845 -0.36322828682588537
-0.27817843133527886 0.40329725517187565 0.6613398106621823
-0.10861914246755419 0.21763694878595102 0.28003709524614623
0.24768129701307234 0.06579608218977998 0.28606057089463777
-0.4382016008579526 -0.36957439507637646 0.8526124237061433
-0.4127081230385689 0.08642852212259236 0.41698338016924963
-0.4127081230385689 0.4633419335346828 0.5432602799750699
-0.2664729203702722 0.1603564064830645 0.8505415725863331
0.2777696633316293 0.035924865119564116 -0.32540274052635626
-0.4127081230385689 -0.4700476896004258 0.18429174390674571
-0.4127081230385689 0.1362099823027264 -0.6999606838410587
-0.5326904357691011 0.3535578122608392 0.5287363106236664
-0.05417776706226261 0.035924865119564116 0.38258224130117485
-0.4127081230385689 -0.2538258224130118 -0.40473834746080634
-0.4127081230385689 -0.315744270895338 -0.7700755010309237
0.24768129701307234 -0.23948692912787156 0.3358510347752927
-0.2647506125017382 -0.2200649466930909 -0.8779348312156297
-0.4127081230385689 0.1064846651973961 -0.7013832685233631
-0.4127081230385689 0.4634719869866515 -0.5464105747462207
0.24768129701307234 -0.18248950318580942 0.3416824314793381
-0.4127081230385689 -0.15480112326166057 0.9979261476466829
-0.5917537107751286 0.26002837166075254 -0.33299986294366984
-0.18286665819651876 0.26972335629943905 -0.31930623486252846
-0.4127081230385689 -0.05655474399978394 0.7058951228955102
-0.6645876455223098 -0.4791714394616188 0.0002105765469608569
-0.5397073197084002 0.22528109052820705 -0.7861441052272484
-0.06761028782829745 0.035924865119564116 -0.3846951096900826
-0.13121542954154158 0.035924865119564116 0.39652397135222583
0.057227020305345516 0.035924865119564116 -0.3577290266299449
-0.4681949281154555 0.3540230034544197 0.3038979020377376
-0.26483764827344036 -0.14502510531828586 -0.876535255990212
-0.4127081230385689 -0.2962902753031496 0.39007732177925136
0.24768129701307234 0.14238472011996928 0.07525342915938456
-0.4127081230385689 -0.05287723254257503 0.4258960432737856
-0.13602540644204772 0.26972335629943905 0.307105220245521
-0.4412538553345425 0.035924865119564116 -0.41837595251648424
-0.45300068328082843 0.4496833198444561 0.0002105765469608569
-0.4127081230385689 0.2563078425232771 -0.9051730261137327
0.7794968732148913 0.035924865119564116 0.08350622105685443
0.6502007325010579 -0.39192558141396117 0.0002105765469608569
-0.4127081230385689 -0.062432159617602866 -0.9924088800497004
-0.5391090738293438 -0.5047639579867327 0.0002105765469608569
-0.5304044962479579 0.3162544805915231 -0.4442305787678736
-0.4127081230385689 -0.31421164098444465 0.7717461876831379
-0.7932255156869473 -0.24593958116786002 0.0002105765469608569
-0.4127081230385689 -0.3804868801077243 -0.8521672407359424
-0.030698116926056614 0.035924865119564116 -0.3774311241920429
0.16460615312893598 0.18626505493757933 0.0002105765469608569
0.6288589610329846 0.035924865119564116 -0.3183708504195224
0.42469805089891943 0.035924865119564116 -0.34328509017206066
-0.3156182190880452 0.22675069453545407 0.3702651789885644
-0.4957992735014091 -0.22175564156868477 0.7667721433509174
-0.4127081230385689 -0.4822697128519822 -0.13329878580096416
-0.4127081230385689 -0.45455732305977764 -0.22667216225868828
-0.2916260583099654 -0.22426867442518877 -0.8232783674090051
0.7998952569506068 -0.0034944362132836838 0.0002105765469608569
-0.6204104887108602 0.25395887709848747 -0.3239751537882069
-0.5339989735781407 0.3633348306153829 -0.5763698880239778
0.7830083164180479 0.035924865119564116 -0.06716720572155149
-0.8070041787174529 -0.012531950631709666 0.0002105765469608569
-0.5811903692417585 0.2618901368462438 0.33621118279612927
-0.10902130775748833 0.26972335629943905 -0.28511718316227963
0.35881297213154606 0.035924865119564116 -0.3361501577148207
-0.5400754710185887 0.18841793977324678 -0.7996276469629018
-0.4127081230385689 -0.425795501951302 -0.28162574818250297
-0.7780002581060816 0.1498362827121947 -0.16916052497576498
-0.4127081230385689 0.43588965064641566 0.7059471442762977
0.459746455793331 0.035924865119564116 0.3459771966278141
-0.4127081230385689 0.31796718451283473 -0.6530383987818994
-0.3519673585843782 0.1855547630075961 0.3917470080202964
-0.3834230868887113 0.4781040007443059 0.0002105765469608569
-0.4127081230385689 0.0046233001763724595 -0.9832351096300579
0.7937327241496255 0.035924865119564116 -0.016577613399106978
0.7503048753037498 0.035924865119564116 -0.18398661850020354
-0.4127081230385689 -0.48711070249872707 0.10627567930419408
-0.776280551306587 0.15276648702616774 0.17395749653107434
-0.7146712298754788 0.2747964413373897 0.0002105765469608569
-0.4127081230385689 0.4517361635632245 -0.6520740024149926
-0.4275942412331469 -0.22175564156868477 0.9909132653520598
-0.28668782869759474 0.37466048545952385 0.5238082852052195
0.3010112156096155 0.035924865119564116 -0.3285970533889428
-0.7678480855631665 0.18696834398937962 0.0002105765469608569
-0.4127081230385689 -0.4633259269559789 -0.20421693315952852
-0.3447275830366281 -0.34474418986203337 0.8645133149724538
0.24768129701307234 0.14133168732348994 -0.08958301862065304
-0.4127081230385689 0.2984891790525906 0.6660257365777335
-0.4127081230385689 0.16021434809706786 0.6988962463572529
0.4643573508712081 -0.45520458908611444 0.0002105765469608569
0.24768129701307234 -0.3541420523835297 0.2893639285746442
-0.7830483328648075 0.035924865119564116 0.11948510837954406
-0.7178375312253337 0.035924865119564116 -0.2789926659857201
0.35881297213154606 0.035924865119564116 0.3365953406850216
-0.07795253849332076 0.34101665784637486 0.2485771652149034
-0.6744126836129649 0.2356533535283001 -0.2967579675246526
-0.4127081230385689 0.3274600860953852 0.6313134698361027
-0.4127081230385689 -0.09005551281576732 -0.4257109672075223
-0.7583551839806161 0.1768461837815342 -0.20931903012137984
-0.014106297688349928 -0.4141367101878873 0.0002105765469608569
-0.4127081230385689 -0.21799509598444966 -0.7043174744820121
-0.2657999437768923 0.09139356275429199 -0.8609768614900724
-0.4127081230385689 -0.49087524972763813 0.07986002246923492
0.24768129701307234 0.02682082335840028 -0.32262259788773184
-0.2657999437768923 0.09139356275429199 0.8614200436379353
0.5960274672890559 0.16713619297531285 0.0002105765469608569
-0.4127081230385689 -0.36229340258846393 -0.35040601687293477
-0.38421341171221374 0.3714791779421342 -0.29434897742972355
-0.4127081230385689 -0.3700225792800842 0.344730684311252
-0.5400754710185887 0.18841793977324678 0.8000698286995956
-0.4127081230385689 0.31646856858168704 0.8662120131373996
-0.31053412952723575 -0.4789293399587231 0.0002105765469608569
-0.033219153071912554 0.19830100171170348 -0.2022411211007724
0.24768129701307234 -0.15399579227062327 0.34227567530254943
-0.4127081230385689 0.10660891626458471 -0.41374104757055147
0.7778161824509874 0.035924865119564116 -0.09015545389154937
-0.5410758821875791 0.031594185210121334 -0.8364647870274682
-0.5284807055699893 0.28230852880533897 0.37403072662864445
0.24768129701307234 -0.4532988058091876 -0.12005134110119253
-0.2800569033872922 0.4029881281206576 0.630980332916829
-0.4127081230385689 0.4420201702899892 -0.19795335883047926
0.3037723504360292 0.035924865119564116 0.32941538972517714
-0.07928808740392303 0.26972335629943905 -0.25969873618057016
-0.5383817749094879 -0.22175564156868477 -0.861450055973005
-0.5353915459253754 0.3585818771515093 -0.6275489226071915
-0.29757440307966576 0.26972335629943905 0.34785796962551613
0.7537662979484568 0.035924865119564116 0.17485486534965877
-0.7634722871100023 0.1707656846964102 0.200720496123907
-0.4127081230385689 0.4084483722810075 0.7641250553977685
-0.5365640278154322 -0.22175564156868477 -0.8375082158767253
-0.5728329343360122 0.035924865119564116 -0.38553845630554157
-0.4127081230385689 0.1829146779326303 0.9384677102289042
0.12809214587195336 0.035924865119564116 0.34238972217581437
-0.7916198557607177 0.11985626092323942 -0.1245842041078883
0.11928852758483738 0.21306907138834058 0.0002105765469608569
-0.8046352050692835 0.05776204019852157 -0.03225825814409717
-0.29286806877626703 0.035924865119564116 -0.4164401569044877
-0.5409718394260041 0.059861532089688835 0.8330843976874497
-0.3658658708729288 -0.22180666253830325 -0.9683289832121003
-0.7541844698170949 -0.3847666390886655 0.0002105765469608569
-0.24590653758694825 0.035924865119564116 -0.4133148724125615
-0.0050215638627476 0.2977228640971439 0.17375641388610727
0.24768129701307234 0.12858254742699246 -0.16815711257326754
-0.4127081230385689 -0.1791911475616479 -0.42032175224017065
-0.7269022568275562 0.20585010439290546 0.25288893735325224
-0.4127081230385689 0.025179048588970042 -0.4233429939705219
0.4896477452232868 0.17686419118257604 0.0002105765469608569
-0.34754894261541497 -0.22175564156868477 0.9554156758427715
0.24768129701307234 0.05057782748709717 0.30438610268820493
-0.4127081230385689 -0.3806549491841147 -0.33485062360630213
-0.48357624983868375 -0.34382981405357604 0.8526124237061433
0.7662414252257678 0.035924865119564116 0.13640606289184862
-0.29187686139003133 0.32555830446313433 -0.43949563270504177
-0.7636223487853508 0.035924865119564116 0.19999519802638893
0.034975875084659776 0.26972335629943905 0.05587336395258457
0.47750775568758763 0.035924865119564116 -0.3459581888156032
-0.4127081230385689 -0.3944686266055349 0.3217612438712311
-0.35722131796168227 0.035924865119564116 -0.4188481465882477
-0.29181883754222987 -0.28702446705596 -0.8733309390159356
-0.49372842238159886 0.4312607481674968 0.0002105765469608569
-0.4804109488999979 -0.5036374950104494 0.0002105765469608569
-0.4127081230385689 -0.2616370328204893 0.73064929686101
-0.40746796933539686 0.15890901160376913 -0.405198536598542
0.6500086535566117 0.035924865119564116 0.30769346201288733
-0.5886194225826815 -0.5006702754832237 0.0002105765469608569
-0.10344301507919756 0.035924865119564116 0.39164796731456636
-0.5148961223062679 -0.3085973335040702 -0.8521672407359424
-0.4127081230385689 0.21517893854374145 0.46089942966559266
-0.4127081230385689 -0.3492570446453493 0.36050516762389345
-0.01064187381013599 0.33927094035648653 0.0002105765469608569
-0.33159018356544545 -0.22213379699056315 -0.7663009496903227
-0.6860104502950712 0.035924865119564116 -0.312438412187409
-0.4127081230385689 -0.15832557181001394 -0.9976250238848167
-0.7309689282295023 -0.42583751922039964 0.0002105765469608569
-0.5266739629987925 -0.22175564156868477 -0.8126069814693838
-0.6733592506520181 0.3185094073664276 0.0002105765469608569
-0.2962697668741853 0.28251161227264404 0.368943635834328
-0.739710521024141 0.035924865119564116 0.2516664349047459
-0.5364459792974913 0.4104021752940458 0.0002105765469608569
-0.30849108983792345 0.5013765657685308 0.0002105765469608569
-0.4127081230385689 0.04870001570645533 0.7041924230858884
-0.7940708631247443 0.035924865119564116 -0.06566048645993498
-0.7008335425860029 0.22261999681869246 -0.27737700194780046
-0.5408087724054588 0.09163876353181154 -0.8266507534596719
-0.4127081230385689 0.46348999438769334 0.5672541414521369
-0.4127081230385689 -0.49495592688595014 0.04708555216193862
-0.27866463116340817 0.4033272675069453 -0.6530403996042373
-0.004481341831492741 0.23973603150895018 -0.17276100477296166
-0.4681949281154555 0.1854207079109514 0.39181703680212576
-0.05684586364996014 0.34286841892017617 -0.2264800833142421
-0.4458777557576164 -0.5019668083582353 0.0002105765469608569
-0.008068816283492519 0.035924865119564116 0.3730403195713439
-0.5155393866879286 -0.5047859670324504 0.0002105765469608569
-0.2855611656390777 0.38365918392459303 -0.5415745871553208
0.5666363875552852 0.035924865119564116 0.33862217371339626
-0.4127081230385689 0.39280194159799675 0.306577003148294
0.5691374154777614 0.17266746632866106 0.0002105765469608569
-0.26993624379620024 0.035924865119564116 -0.41522865897884026
-0.7712034646239605 0.035924865119564116 0.17279501875270742
-0.09273161269281677 0.4273951594105177 0.0002105765469608569
-0.4127081230385689 0.1704425518888263 -0.6975927106040583
-0.4127081230385689 0.44560864515315796 -0.6751144720480117
-0.8041109896167326 0.0615204949234135 0.0382723299276003
-0.2889933762776501 0.35355080938265626 -0.48610178783480007
-0.4127171267390898 0.4628837452192851 -0.09551255566037636
-0.4127081230385689 0.4568702736824835 -0.48124179037584447
-0.36001646676784166 -0.4893876383193493 0.0002105765469608569
0.3623184128676887 -0.4668563779713462 0.0002105765469608569
-0.5241679330204715 0.26191314630313056 0.3519296430833073
-0.5413479940255445 -0.06326150047669596 -0.8464408872046412
-0.3752057095466237 -0.3626435464976106 0.8591771217970586
-0.412800160866116 0.4647094956026927 -0.07241196131610086
-0.7767377392108157 0.035924865119564116 0.14907827116945072
-0.4127081230385689 0.34620679099109736 0.8375302249224432
0.8033766878186935 -0.054583933996872745 0.0002105765469608569
-0.33122673418775117 -0.22175564156868477 0.7670642634122625
-0.1063001893778343 0.31969289377934335 -0.27721293451608603
-0.4127081230385689 -0.3595722842088099 0.8820665293435603
0.004610394872292528 0.25919702997932154 -0.16343517185563264
-0.2652727270908343 0.008442669937344221 -0.869506367116885
-0.7998372331028053 0.08758599784511432 -0.07660268370300188
0.7801071240279754 0.05116574912288948 0.0002105765469608569
-0.6014827093935609 0.37293977824886027 0.0002105765469608569
0.06514127306322895 0.2543980576016743 0.0002105765469608569
0.31184366774744426 0.15446118354643756 0.0002105765469608569
-0.4127081230385689 0.46041673127655464 0.11723518366048452
-0.4127081230385689 0.21222072271703668 -0.45769711351365405
-0.20581328926188666 0.26972335629943905 -0.32532270763283705
-0.5811123371705772 0.38556296637918186 0.0002105765469608569
-0.1568842794388494 0.26972335629943905 -0.312332368603496
-0.8045491697087503 0.035924865119564116 -0.014703843279587856
-0.8063839237926789 -0.0609815634225667 0.0002105765469608569
-0.4127081230385689 0.3729177692031425 -0.8087493960017567
-0.4127081230385689 0.10949030051351102 0.41377506155029725
-0.27204561074601663 0.35707525793100964 0.7604695529862775
-0.41511011025531497 0.46554784016230666 -0.024468356494519193
-0.06178789482477298 0.18803278147318545 0.2319943496777176
-0.4127081230385689 -0.29788292988418247 0.9474714107498183
-0.37518069926739894 -0.36255551031473937 -0.8587379412938718
-0.4127081230385689 -0.09005551281576732 0.4261561501777231
-0.5319281224583304 0.34232219442190737 0.5006677744553012
-0.4127081230385689 -0.15886179219659285 0.4230478726756698
-0.5015406332002453 -0.22175564156868477 -0.7730097069895727
-0.280609030311458 -0.2653415553792609 -0.8752927453183258
-0.4127081230385689 -0.3185654303918911 0.3792758823876614
0.24768129701307234 -0.3070066797453754 0.3158508146848355
-0.4127081230385689 -0.2170567103079366 -1.0
-0.4127081230385689 0.23948892995020954 0.9135784807555907
-0.5288368519461499 0.28860111505828895 -0.38667092174883877
-0.4127081230385689 0.4521933514674531 -0.45771612132586487
-0.05816340515952058 0.39172549918016303 0.0002105765469608569
-0.8021821968829189 0.07421480228373858 -0.05672141250053767
0.24768129701307234 0.14285571369832997 -0.06613878303982933
0.24768129701307234 0.0008262395844691866 -0.32658922817277897
0.5946679085103977 0.035924865119564116 -0.3312281347633877
-0.5142808694373388 0.035924865119564116 0.4018791723398318
-0.22902122772459482 0.26972335629943905 -0.3312091269511769
-0.1719841855002406 0.26972335629943905 0.3168442229756431
-0.5107864332240551 -0.22175564156868477 0.9203352577909522
-0.4127081230385689 -0.49573924883126974 -0.0399901359458737
-0.3343080005882418 0.4948398791903472 0.0002105765469608569
-0.4127081230385689 0.45215233460952453 0.1631130394592178
0.24768129701307234 0.13050423724150623 0.1611632380908554
-0.4127081230385689 0.11808313216732073 -0.961116018683679
-0.34577991554528914 -0.34509233294884206 -0.8638840563471587
-0.5145589837423181 0.29731269551785783 -0.3330248732228946
0.013016849925319316 0.26972335629943905 -0.14427529714712742
-0.07850876710327946 0.035924865119564116 0.38716212363281316
-0.5127642461051493 -0.22175564156868477 0.7877937832449137
-0.39361327505604804 -0.2217626444468677 -0.9874848562759294
-0.4127081230385689 0.07633297285184208 -0.4178977559777068
-0.35613187019865167 0.18265657185103074 -0.39281444673760907
-0.5361078403223726 0.353789907652045 0.6542919139766444
-0.4127081230385689 0.09760341500356644 0.7022186118494702
0.4829990125941762 0.035924865119564116 0.3463543516385235
0.11889036393957916 0.035924865119564116 -0.3438673294724131
-0.13446176378491562 -0.43448307254281515 0.0002105765469608569
-0.4127081230385689 0.25747032030164396 -0.6795943132627509
-0.4804239542451948 -0.22175564156868477 -0.7521971530298952
-0.6204104887108602 0.25395887709848747 0.32442033675840776
-0.2687812691016008 0.2825896443438253 -0.812796059180323
0.24768129701307234 -0.3692512622687925 -0.27657467219027015
-0.4127081230385689 -0.34627381853941974 0.806214354099535
0.3776046955298628 0.1640689323311881 0.0002105765469608569
-0.4127081230385689 -0.13215281480688568 -0.7049787462647147
-0.27210513521057156 0.3580536600542823 -0.7590649757050147
-0.5278334395436524 -0.2806178339297452 0.8526124237061433
-0.5004391805031868 0.3209163966390186 -0.32071581419963596
0.5132404418215887 0.035924865119564116 0.34542096801785543
-0.4127081230385689 0.4456176488536788 -0.4314413223834996
0.5171690564822142 -0.4424033277677125 0.0002105765469608569
-0.01462751190739395 0.22084826863841037 -0.18317028298630733
0.4370631329476415 -0.45984149485438525 0.0002105765469608569
-0.1552984276537657 0.035924865119564116 -0.4002495025455462
-0.5393571757992535 0.24970512880794005 -0.7732307978579196
-0.4127081230385689 0.4316439056452202 -0.22173113149504442
-0.4127081230385689 0.4611040137496511 -0.5996844703173003
-0.5448164195484345 0.26735338224010063 -0.34388733769579294
