0.2582786495101855 -0.45623750939063595 0.2827656242414293
0.3674197360261582 -0.13233376760071694 0.1715734877009571
0.4167540456686458 0.14296829681266424 0.4235603485683941
0.44391018823313905 0.015287780136246171 -0.05878775836448529
0.024328516352093956 0.7161402822120708 -0.009628623809497581
-0.10920064604572265 0.21921520559799518 -0.012054548521246976
0.4861734303436285 -0.4472024788776382 -0.11951545569797012
0.04635713395538845 0.22023552540764493 0.004814712304948809
0.3580753963586605 -0.10695239892272324 0.2774092705659307
-0.14773115729171302 0.6627359045365843 0.042894783335944285
-0.2590374078891852 -0.7988239245125504 0.022594182885794362
0.4589051757231353 -0.4897039591071276 -0.13942235264146513
-0.32195028931416947 0.02958807327924259 -0.11248342718547187
-0.47529355590913114 0.28297283134492923 -0.020222011900894937
0.07641407586883094 0.7512994237740622 0.015469862127196142
0.5818961051571044 -0.1730724859497067 0.26232619503193444
0.008683178837247868 -0.5648780956566086 0.12249573448661938
-0.2512155899821871 -0.12649893568621837 0.09469895160212632
-0.06322329168003415 0.6611383077385847 0.13508721967606624
-0.4738220851741315 0.5382765073691155 0.11265930297332184
-0.4216739631261445 0.16935216749140766 -0.06292589443148426
-0.22889227783169272 0.419809099194645 0.04461976745757385
0.2568502217966858 -0.8280080940900428 -0.34113096039491475
0.1068973438952233 -0.1007812308402248 -0.014689482137396315
-0.49354780102712653 0.38062093062015484 0.15931423457746016
0.23608646842519102 0.44501429178463875 0.03769311426771059
-0.3004137635566749 0.531896130182117 -0.006723520158398307
-0.10676471132897326 0.5208170566481197 -0.05979976986998504
0.2144037965946964 0.014715207850246326 -0.34290173027941423
0.2909032578061773 0.19132229663548714 0.08303088937392926
-0.007612328522358056 -0.712126270207072 -0.45554431654438604
0.4256489361116436 0.06211458352623448 -0.25567955171193607
0.19686026183170083 0.10170635550232456 0.03154673095759212
-0.34583316024366345 0.2355337159490911 0.01904863911479525
0.19791231335720055 -0.09905450497772526 0.025829416501793552
-0.2435108891336891 0.6894956509030776 0.08330716551192918
0.3250894268821688 0.45042169648563735 -0.004690388042848814
0.2834928511046792 0.232062946915442 0.1267693059212683
-0.2274077940901931 0.6483385143450878 -0.0818778368979795
-0.2899803353451775 -0.7938439470250516 -0.009969864879947493
-0.2889402958256777 0.3851744818946537 -0.05093691144298725
0.512258502373122 -0.4651103778226337 0.004969967482498769
0.4066969936451484 0.07982528537273004 -0.2652581254964337
-0.39223253642015193 -0.014784276884746294 -0.10023018006497493
0.2101405354651975 0.18980420930720254 -0.21566655872544604
0.2791815419511802 -0.8458959730250384 -0.3012861354924246
0.503814062155124 -0.11420264554422142 0.3912370414229022
0.34497430181466376 -0.19788128234170055 0.23596384586394104
0.3785528635871554 0.30809944539567297 0.39406887183740147
-0.1574548761487106 0.18499900650700374 -0.01881310369714529
0.3725448585861569 -0.0427622408597393 0.236054936909441
0.4109892837891473 0.2766591207912308 -0.11970564579297006
-0.06990627131818249 0.872064128096032 0.0792347951777802
-0.3655228400786586 -0.029172658071742723 0.0864139707637784
0.3713296439791572 0.21294924276814675 0.4343681509668914
0.0461700469619385 0.38097928879915477 0.09839494574827541
0.20747186813219817 0.39764794912515056 0.15695087239696076
0.4429592377581393 0.3705298445796573 0.13445618896086636
-0.10677352013337327 -0.7133795228330717 -0.44745322950288813
-0.0019292783136744763 -0.3706719866506573 -0.39739819950040056
-0.2510374118931872 -0.4224987875381444 0.13521574814026618
-0.22199037938419444 -0.7098009460455725 -0.3992710714359002
-0.42661790459564325 -0.923763801920019 -0.2829488073329292
0.20240880760319943 0.36291423277565926 0.29218904294842696
0.2948722247886763 -0.3517670912076621 -0.34870152717641284
0.33632165349266596 0.3854047120096536 -0.05703400548848572
0.36703635283465824 -0.057563034252735595 0.2577336047379356
-0.04795503105353797 0.4348371197011413 -0.07942238267148012
0.43678206367264083 -0.3856879951511536 0.2772971585099307
-0.09277422784072677 -0.36851182757165785 -0.38398879680240394
-0.014770262877746267 0.7092814267860728 0.17616207399295597
0.20742382010819818 0.3534788020626616 0.3167706122269208
0.17922263302170524 -0.05260908277823685 -0.006449346121448375
-0.16154396319120956 0.4437290071426391 0.043183622030219214
-0.38976106618565254 0.18546767494110364 0.10994909411957252
0.21138678108769718 0.39811841936015047 0.1956695717369511
0.4646779456066339 0.08267913779822933 -0.13557450671946608
0.28307443289567924 -0.87919925966003 -0.12024618606296991
0.14526369105921372 0.5207119515956197 0.06770336951783308
-0.2854688260916786 -0.927978014025018 -0.2752951575099312
0.467995261263633 0.2203093992445449 -0.05760757877498559
0.272085449406682 0.2100330480315075 0.33235518901141686
0.35706138285216077 0.32343477305566914 0.39872352416240037
0.13910753798421527 0.632101285234592 0.06992509012758252
0.48032458442212994 -0.11370614929622155 0.09557783004112612
-0.3444337615446638 -0.5382374683496154 0.05897364415733527
0.3717310451796571 -0.6379491301555905 0.1592231435319602
0.5201423823111201 -0.05327975311323669 0.15475567830046133
0.19484324582420132 -0.20111651595769975 -0.38241122001440436
0.07144530958693218 -0.40965394912214753 -0.39839319399740036
0.31044879356917243 0.02003352350674498 0.33597981182191605
-0.05732639773453563 0.3963306324671509 -0.05811708802948545
-0.34075408370666477 -0.6170482397155957 0.04350014089082039
0.38729059695165324 -0.32826960547066797 0.29022207696592744
0.3069613078271733 -0.8510511256000372 -0.1667666832999583
-0.31976610622317003 0.18983323832170254 0.01076345807634732
0.17179520931170708 0.4454287059916386 -0.020029519504744978
-0.3690133288221577 0.2772122736675307 0.032978962472991764
0.5133696129281217 -0.2008982978486998 0.3404973270784149
0.14829371957271295 0.22339087918374415 0.018017808799895504
-0.04745182810218809 0.3768091207161558 -0.09839834914997539
-0.39638268449315084 -0.9241541921150188 -0.2829087673129293
-0.1962786805412009 0.6445116894335889 0.07047854330403239
-0.040524604342039826 0.29124059497467714 -0.10715510152397319
0.2301084934391925 0.06626172859773342 0.028884169727642788
0.5661753923046086 -0.30227862748817447 0.06294050903878427
-0.5724396534336068 0.4001254253626499 0.14272425289076435
-0.40691621275464823 0.20643664342510337 0.11308472818582173
-0.28258594465167935 -0.5527319555896119 0.1268178544455183
0.09043108587032743 0.8149390315620462 0.14177440351631454
0.20420860650219896 -0.6493735488620875 0.2111690634789472
-0.30434068851817386 0.5822524613351044 0.010862457025797294
-0.08435891673727887 0.9757507628875061 0.16611803497595848
0.2964247765641759 0.1294392745549176 0.05600597797498601
-0.2752446069846812 -0.13641985164171588 0.10022037026007496
0.2929332868201768 -0.875165227645031 -0.1452111385329637
0.10046991968472492 0.5413475769031146 -0.07688784940548077
0.027268855220793222 -0.41673202365764583 0.07856142214143036
0.41031360845164744 0.4310213057951422 0.07471187451858133
-0.24401138938368896 0.7247899275325688 0.08807292889242799
0.12349092918371916 0.5428150436361142 -0.06140036966948464
0.2024558546266994 -0.29341576906117667 -0.38085766723840475
0.23065804271369236 -0.6538310040885865 -0.3612510704449097
-0.37215346739065686 -0.5889901957006027 -0.04239687567723939
0.07685191348753083 -0.8382583392100403 0.02111640584764473
-0.14494337089921372 -0.07826272359223042 0.0356518840581161
-0.002568497212964317 0.75949561586806 0.011941535564797027
-0.3657340511841585 -0.5908580626336022 -0.010861856425497276
0.4894647199876277 -0.08560906626172862 0.40996375877689745
0.2901274824186775 -0.8944244772650264 -0.16861252822195782
0.26225762649768447 -0.8230631516200442 -0.01620749939564594
-0.315797139240671 -0.927597633835018 -0.27533719953093116
0.05258345716543689 -0.727581717927068 -0.4407895691743898
-0.2811124719156797 0.09015060553022747 -0.06488685441098377
0.4573275989351357 0.29152948371897713 -0.029133619052242706
-0.0286282138997928 -0.3649232407791587 -0.39463043311790136
-0.058063634602785436 0.5155517940181211 0.07166522939678209
0.19433273556920147 0.24848055631603785 -0.15699291441796076
0.18955195718120266 0.2695246899275826 -0.13761654773946558
-0.37600031231215597 -0.5847709785931037 -0.06845942519548287
-0.2201785684791949 0.5073265729096231 0.06138785716323466
-0.16977819330420751 0.17584906113660603 -0.22190179083994455
0.00733012646139821 -0.4848280856716288 -0.40997076578039743
-0.28971807321417753 0.6286468325090928 0.04770706320967808
0.06425672459623398 0.5375838150231156 0.11690104259207078
-0.0622211900794844 0.9904394442245025 0.16317509350595918
0.3358752072696661 0.29312057401372665 -0.13764357475296557
-0.5686158315236078 0.4435318100441391 0.06470697462113384
-0.1538042273252115 -0.2780263873741805 0.07651637811993087
-0.5017760251371245 0.45343871199263663 0.17073364828145732
-0.07579395605908101 -0.7066688154810734 -0.4529617352543867
-0.3490864118686627 0.013402896194746647 -0.11598893093647097
0.23183521930169207 0.3035348831156741 -0.09263959327347683
-0.13390333638471646 0.6734686318975815 -0.0375445257534906
0.3735748881006566 0.19217169560976194 0.31595179381792105
-0.053603476674936555 0.21129018453944715 -0.09260856225797683
0.21407847143219652 -0.5093816269361227 -0.3701880029089074
0.22623762450569346 -0.6032804788385991 -0.36552133857790864
0.2813997590591797 -0.028570055770742855 0.021703292440794584
0.048166242159037996 0.01427576863074644 -0.018792282886745292
-0.2469603368566882 0.1063611079273734 -0.0013125118555996633
0.3146099526476714 0.44962890408963757 0.26390277081943403
-0.11078122583522226 0.20850135710642786 -0.2147276202564463
-0.003441539819049098 0.8168509425170457 0.02730088723679318
0.4485988745751379 0.031142627055742198 -0.2123592530734469
-0.19999339339669994 -0.43803731829964043 -0.34288871727291426
-0.395651954128151 -0.9164164582500209 -0.11017712203347245
-0.171834248331207 -0.047235712094238186 -0.31050535009742236
0.29069605070267734 -0.6501353102425874 0.19995285287645
0.2976189701606756 -0.8557157879300361 -0.24724211849743818
0.5178540951681206 -0.15185628035221205 0.0876572133847781
0.20829969554569797 -0.4379141952381405 -0.37389670976140643
0.09686231388272583 0.783338446777554 0.13365809126221656
0.4824507094841294 -0.4108221167056473 0.247943819847938
0.04836944526053795 0.6570281996855857 0.1580299509359605
-0.4070263228096482 -0.17909050095570522 0.04540282011870866
0.03694342495324081 0.6694356008830826 -0.03258216587479184
0.571747962088107 -0.2562796515116859 0.08847072649112789
-0.2681365024341829 0.9076256718590231 0.0340411441235515
-0.23525764001119115 0.8030681666325493 -0.052366039856836896
-0.05272169533448678 -0.5704036184166075 0.10410245039917398
0.42053382355664487 -0.6260111981925934 -0.07114210653548221
-0.2705619266456823 0.22205924821859446 -0.09096491943697724
0.5794676779441053 -0.29295731083217674 0.09745921048087565
-0.05886273330193524 -0.9269469835100181 -0.28842728306942794
0.5585147354781104 -0.3818801892491545 0.12824658245916795
0.2506300046896874 -0.21594333536369603 0.21335825157244664
0.09421166455872648 -0.2629042728206843 0.06629976661673344
0.3245729106241689 0.27690256411283076 0.16074266229095982
-0.3453466740006636 -0.5655888060116084 0.05710537682413573
0.5338310641486165 -0.41319749089214675 0.02695343996324327
-0.5828620706396044 0.46772899513063304 0.14978571081796255
-0.0546454180953863 0.4146849776351463 0.03125714151294219
0.45358085406363663 0.33649582757966584 0.013620914103646605
0.3494527780516627 0.1471867131197632 -0.24908796341943773
0.049685560717937616 0.4907900446496273 -0.11077872333397229
-0.3605979176186598 0.22806825422009297 -0.03136494926679215
-0.1714738881512071 -0.5297710061206174 0.13100984433941726
0.33642375554366594 -0.02779227838224305 0.31294478831592176
0.3402355654476649 0.2689353008331828 0.2339167998414415
0.01603692891044603 0.22423161950369394 0.0016332324157996025
0.22431970754769395 -0.384068376342154 -0.372081895854907
0.32025759746866994 0.4610363057876347 0.15780872982546054
0.45055583055263737 0.2510175920832872 -0.08704800448047821
-0.36604035733715845 -0.735774907019566 -0.21780469579344555
-0.41268197563464676 -0.9415415708000145 -0.12266160026946932
-0.2800444043821799 0.29147723149287713 -0.061976945957484486
0.21598537738469603 0.3543076304766614 -0.025195983385393694
-0.11845689766922034 -0.4187430336621453 -0.37877458519790524
-0.09745480607867558 -0.2668131797731833 -0.3647745922049088
0.00991250755129756 -0.14419362152471393 -0.016585977684695843
0.38751982606615315 0.29176872283847705 0.152158082002962
0.030059044014492525 0.6928530065800768 -0.02189027933419452
0.08247493369622941 0.24770277892753806 -0.22932821354944263
0.22002341340169504 0.31660995164667083 0.1432786069676642
0.3925628665851519 -0.38786617223915304 0.2925894431484269
0.3388121427366653 0.4308040886866423 0.3244582960669189
0.5115007449946221 -0.1384048356332154 0.37472053317290627
-0.059039610090285195 0.6292274127990928 0.12789673278441804
0.22937576107319269 0.0419524314552395 -0.32966550066791755
0.22271910774819437 -0.5704346494321074 -0.3661169338754084
0.4077860821891481 -0.38047078054515493 -0.2756965587104311
0.46789015621113306 0.1975763575693906 -0.032397581382591883
0.22926264801669272 -0.2299463313581925 0.19836526608345043
-0.20996435937719746 0.2259714584727435 -0.19810000095095046
0.23677916077119085 -0.7702823972560574 -0.3607235431814098
-0.06957514035278256 0.32255789661766937 -0.05183400809108703
0.4952224748636262 -0.48820245835712794 -0.034369051867341405
0.09322067406372674 0.4987169676091253 0.1023870358423244
-0.1233988371377191 -0.24127765701818965 0.04998685185843251
0.3220253643516695 -0.007822318407248046 0.32254338211041933
0.4337340171501416 0.1259436807088685 0.41041220700089737
0.1989043048527003 -0.03744392520324065 0.0033490473728491695
-0.4561724443581359 0.5071503968216232 0.10422096885837395
0.42971800314414255 -0.4651964638656337 -0.21329719054194662
-0.12457701472621882 0.6310141986915923 -0.019871061125595016
0.18362903722270413 0.3203917315356699 -0.09454349622447634
-0.5807669765931047 0.4403866664731399 0.14742935564096316
0.11902746795422027 0.06334481314073415 -0.0013238231612496593
-0.03469427692979128 0.2573235949331356 -0.12330724559196915
-0.22908446992769269 -0.5465778045156133 0.13854107180126538
-0.35783115223666045 -0.763310428773559 -0.11745439566847063
0.13516559801521627 0.08182928837372955 0.008870866430997791
-0.27554090313268104 -0.712264408276072 -0.36185667574740954
0.20383122931369907 0.21095986438445224 -0.19370861175745155
-0.12681525184421824 -0.07046092569523241 0.01744183311219565
0.31781615724917056 0.4541904633681364 0.23414803095694148
0.4155037960441461 -0.07806752849473048 0.049257442814092695
0.5866538605336032 -0.006473970733748396 0.27340026356343167
-0.2210053948921947 0.15647910086131087 -0.04101559508728973
0.5921463502771019 -0.07335281613973166 0.3145774201314213
0.14446989766271393 0.6084906864410978 0.05914101144093522
-0.05796343445273546 0.6009871866930997 0.11623737926057094
-0.05750207332228558 0.5724396534336068 0.10225620507697444
-0.38008539535265495 0.3002944442970749 0.04014546539265997
0.44171599513713955 0.08182027936922953 0.4310548393118922
0.4473556319541382 0.372046360337157 0.108074820783373
0.04995352855178755 0.5700632782466074 -0.07345742069198162
0.29202037436417705 -0.4165328245581459 0.2950338863694262
0.42421450239514397 0.340050380355165 0.2264143010939434
0.19941481510770018 0.3364908225771659 0.07195892294348201
0.24214452345118948 -0.8180481391150455 -0.36083265223590977
-0.41319448789064667 0.38410541336065396 0.07286182539448179
-0.47390817121713147 0.1471413677971132 0.10268633499182434
0.3732775909521567 -0.015985477484746 0.43989167172589005
0.32791625229416804 0.4150543468196462 -0.03414642935614145
0.13285528886121684 0.6624546233960844 0.08090626581267979
0.46910336881713277 -0.10618463153922347 0.4006324321158999
-0.1288913268812177 0.6698830481065825 -0.010870765329947274
-0.08207553449672943 0.38067698664815486 -0.1223743131259694
0.41242872250814694 0.16882153712635778 0.3233782165274191
0.19860400470270037 0.2299123974412425 -0.17546337564395612
-0.29831766850967534 0.5052204678576236 -0.020079569529744972
0.09623869057122598 0.04361409228523908 -0.01570930144679606
-0.15966308325171005 -0.8088689645300476 0.046336713545188424
0.028943128657092806 0.23935943976004015 -0.21640930109644588
0.46622549237963345 -0.5585928135171103 -0.015938330361196004
0.0193605508705952 -0.45810037132113546 0.09833858942012541
-0.3424597885586643 -0.9261161530950185 -0.27890276331193026
0.008450346120947928 -0.40140870800364964 -0.39979059069539996
0.584118326267104 -0.31573808021117106 0.1567987203209608
-0.22726264901769314 0.7784225333220555 0.09226752138762695
0.35184216624516207 -0.21017356848169746 0.2583752460584354
-0.4976168680596255 0.1416256548420146 0.07764460578348059
0.21415054346819648 0.33137470902166716 -0.03828736822454042
0.4057340311641486 0.01616665857524594 -0.013186479886646695
0.37309240585965675 0.2228357243064443 0.3669217382774082
-0.15088430886671225 -0.12248892768321937 -0.32671054719191833
0.2064878846406984 0.2683741399528829 0.0033466449716491706
-0.1722696835487069 0.8620431120905345 0.0035451433707991264
0.34934466999766267 -0.6429020806295892 0.17272463827595683
0.29458693964617644 0.34443976754766387 0.4057495466718986
0.05226924310848697 0.43448476752514137 0.11155860282352212
0.05627234420803598 0.6218380271080945 0.14633025709196343
0.5032024508496242 -0.4259582452661435 0.22282971830344428
-0.291682036195177 -0.6029361346665993 0.11075990452457232
0.22922160699619273 0.4071894858911482 0.3189427833119203
0.20504143891819876 -0.41105134582014724 -0.37554635858540614
0.11025169657072248 0.2515406148445371 -0.22410098893844393
-0.1881665724892029 0.4371764578696407 0.04769220836225809
0.016936828359945803 0.7083104563010728 0.1728717853494568
0.07869345410738036 -0.6044546524250989 -0.4082760719338979
0.23964502520269013 -0.6925787324430769 -0.35584867074641097
-0.08508344089917869 -0.292077431392677 -0.3742480609369065
-0.22101140089519472 0.5970932947481007 -0.10181075985447453
-0.07738824955543061 0.3166239656536708 -0.14677970631646328
0.4077270231596481 -0.03880528588324031 0.43439617898089133
-0.4833976559571291 0.33258491862616685 -0.003926924961499007
-0.3103747195321724 0.6754866489055811 0.03515726969105622
0.3359332652986661 0.17298079430390673 0.06066203170068485
-0.49675700863012573 0.4763646264441309 0.04476553315038382
-0.3346740066696663 -0.6451643417595886 0.03426681968627644
0.002987586092299293 0.831576660872542 0.21114103546494722
-0.16595036739220845 -0.08698444094872827 0.051891435489772035
-0.06637053735208336 0.23162761179799207 -0.15864957024546034
-0.3377340651981655 -0.7219871261325693 -0.2862571139854284
0.452188462368137 0.35327059395866167 0.03434363646464642
0.10752497120872316 -0.8381382191500404 0.02475264026394382
-0.05179326737073701 -0.8308509355100423 0.02072681645304483
-0.375894206259156 -0.5393125428866151 -0.1514984226734621
0.2985589096301754 0.10289904759807426 0.0476409170966381
-0.10240365245062436 -0.9324424762550168 -0.26853440013293284
0.2751244869246812 -0.7873464527795532 -0.3137375807119216
0.2057371342656986 0.3783446554831554 0.2607346042369348
0.3183747155281704 0.45698125276213575 0.2075674636799481
0.17944685713370517 0.38254785658265433 -0.05706103250198572
0.3008862357926748 0.01946895922474514 0.024860347917743796
0.32270204068966934 0.03577125336774106 0.44748626251938806
-0.3705949096121573 -0.7432764047665641 -0.1866375442254533
0.07949805830928017 -0.9260160530450186 -0.29389674980142644
-0.19968208224120002 0.691992146150077 -0.07695791944048075
-0.37842073152115535 -0.44908836381963774 0.04328322658497169
0.5407019315806147 0.03933581614824015 0.37787268374740557
-0.08910836380962768 0.7887178234645528 0.14937830361446264
0.3517730972106621 0.471646911087632 0.05453470744008637
-0.13855698770921532 -0.25932769803418515 0.0632926610146842
0.32135469401666966 0.33933266299666515 0.40430510295039895
-0.2253257130501936 0.31299734084217173 -0.17368760075695658
0.4352975799311412 0.36334065898865914 0.16299491341595926
-0.21030870354919737 0.4611033728211347 0.05378455766538656
-0.15311754098221167 -0.42560789509114355 -0.36543224953340864
0.4578060771741356 -0.5809291386741047 0.03303792140244175
0.40554484206964864 0.2792061665634802 0.31468052318292133
0.5078330791626231 -0.2317020862351921 0.3269708073219183
-0.49809134229662544 0.42347476302564413 0.021982271280144513
-0.5655197369771087 0.37156187609515706 0.13640864043611592
0.19018759249870248 -0.13937280311671515 -0.3808326422259048
-0.11731976110122062 -0.3638021202191591 -0.3743311439784064
0.38478208969865385 -0.3737490621876566 -0.2952360884704262
0.41682011170164585 -0.11662606775472083 0.09327512849092669
-0.19470510775520125 0.6576748460085856 -0.08277973834847929
-0.4578210921816355 0.25314972314828665 0.13637220401791592
0.18602343041870353 0.29136572003717714 -0.11939233263647014
-0.10775520132372303 0.891596650852527 0.15810602697396048
-0.08046912889432985 -0.9893393446750025 -0.08796792393997799
0.45431759043163644 0.10005750747872497 0.23329718053194168
-0.4453436209491386 0.21033866349416241 0.12672155819741832
-0.22775414026319302 -0.11639783964072088 0.0859877447508785
-0.08845471048312784 -0.49179404815112704 0.1035588070276241
0.17062904372920737 -0.7540701931580615 -0.40786365972789806
0.07778634745428059 -0.7302443792570675 -0.43297575927139176
0.30121856795867474 -0.8009510505750497 -0.2647696372524338
0.3212195589491697 -0.3935928960996516 0.3018617107799246
0.29235570953167694 0.048513989732737864 0.34169652567741454
-0.299828178264175 -0.14656298970821335 0.10257041913392435
0.5424817104696144 -0.20098738689319973 0.08634870553117843
-0.41264493861614676 -0.15296038390371175 0.037863434502785544
-0.3432685969626641 -0.5089552007231227 -0.22279268128494426
0.0937852383457266 -0.6304286133990923 0.18947237764145264
-0.3515728971106621 -0.592240444324102 0.03080899358909231
-0.25952990013518507 -0.4669952617641332 -0.3034973455969241
-0.2835669251416791 0.32245279156516937 -0.05339396727028664
-0.03857165236654032 0.540130360295115 -0.04537875606668865
-0.22990228733619247 0.504472720484124 -0.11643838016097087
0.4665388055361334 -0.5285297655006178 -0.07377073384848154
0.3022285774631745 0.2642044723701339 0.23895483535794027
-0.057840111191135496 0.539556787008615 0.08398173974887901
-0.2632546229956841 0.79999909909955 -0.048645921598637835
-0.25223260649018686 0.1443683962120139 -0.16482774533145877
-0.527628865050618 0.2342223051940414 0.09671826991077583
0.3741104233681565 -0.6991783287395751 -0.10703398046347323
-0.3823736824956544 0.039813293386740035 0.10128473409172468
0.5822995083586046 -0.2472576340051882 0.2103312260604474
-0.48343569397612907 0.3069833298381733 -0.011109403849147213
0.044583761469588895 -0.35445077354816135 0.0628499184935343
0.4185268175541454 -0.0487942698727378 0.025865152219643542
-0.22202341240069445 0.6386718525165902 0.07229055440913194
-0.07170827241828202 0.35310943287816177 -0.04684912570113828
0.004788686291948843 -0.9244845222800189 -0.29672858021592585
-0.30187021928417446 0.04255503375623937 0.05532009243238618
0.18231572456670445 -0.11962106125072007 0.03203752150274199
-0.3042415894686739 0.16266628495180932 0.004913310854198779
-0.36918750290915764 -0.9256657028700185 -0.27927013049543015
0.001103302751099765 0.2431711495639892 -0.19927017053545018
-0.23073912375419225 0.3443086364821639 -0.15506298545396122
0.5867369435751033 -0.2955859381451761 0.17390782086695653
0.19720060200170075 -0.23209347743069197 -0.38186567474190447
0.0541823552640865 0.9383463772040155 0.1028091577531743
0.4232064948916442 0.37521652892065616 0.25927714750893516
-0.3931224258646517 0.06782929538073304 0.10737241873252316
0.2009633628811998 -0.025789276381743546 -0.3596234436319101
0.3709402547846573 -0.07774020133123058 0.3055273746109236
-0.4241824703791439 0.15092765218836224 0.11730885019577067
-0.3736629761446565 -0.48317643484662925 0.03891983037045528
-0.13542986214721608 0.19928874910473016 -0.014973065579046244
-0.16761002622120805 -0.711916060102072 -0.4280698558208929
0.3395078380841651 -0.3684277435296579 0.3044432910694239
0.2149713638781963 0.20988521026766252 -0.13582475684446602
-0.08531817551642863 -0.9266667033700181 -0.28791276881242805
-0.28320856696267915 0.40928558093814765 -0.00728668303969817
-0.5116468910676221 0.17923224262650517 0.08308023869857924
-0.018354014837830366 -0.8568068784750358 0.016108700646295982
-0.2569022738226857 -0.5584957164686103 0.1347888214270163
-0.356023345333661 -0.5190723127766204 -0.2014153146069496
0.16964105623570763 0.47001427927213246 -0.006630927612148335
0.1633878061122092 0.523994232235119 0.02239148028454441
0.43375303615964156 0.023525013250744128 0.18754144767695313
0.03818436527309049 0.41495424676964626 -0.14077770731846478
0.0565407124420859 0.24461379148458884 -0.223910798843444
0.20261100970419937 0.24899216767158774 -0.015983775783895995
-0.49109735180312714 0.35093425879166223 0.15496688940596126
-0.363846164241159 -0.536229461346616 -0.17981972981995503
-0.21645684862019582 0.6265687554710934 -0.09215711103247694
0.39242172551465193 -0.09542087316272616 0.35233415799091194
0.4548541266996363 0.3163446865141709 -0.008956251773647752
0.09998343344172504 -0.607517713955098 0.2012901895444497
-0.3201384784091699 0.8164885803360459 -1.9619609799982766e-05
0.3383937245276655 0.363954272295159 -0.07687083239698077
0.08357833654737915 0.8446717494135387 0.14550643368046365
-0.29189124529967697 0.8019560550770495 -0.02650278953814337
-0.4294537390121426 -0.048786261868737815 0.03772947060587058
0.43639767948064095 -0.10913958501522274 0.11207471868132199
0.1694178331242077 -0.8288989845350426 0.026149936861893472
-0.19488628884570122 0.27835932014048037 0.03280308668514181
-0.23088326782619223 -0.37783915023065545 0.132031665649817
0.42720549188914325 0.018133624557745472 -0.03306785131739172
-0.1066500967717233 0.9285706063210177 0.1684473631394579
0.38275606468665435 0.10989393899202252 0.46807484080338296
-0.039434114397340105 -0.17014956448970747 -0.0066585552259483234
0.2032676660321992 -0.3621955144166594 -0.37902483532290526
-0.0762294913766309 0.7368710025670657 0.1443272550914639
0.12155999921921964 -0.3624878065626594 -0.39612092286240097
0.3975638650831506 0.16863314883225783 0.037348760085705666
-0.3706499646396573 -0.8728829465050317 -0.09298493844597676
0.15064206674571237 -0.5568610826521108 0.23941129158594016
0.5703815964056075 0.004970467982748741 0.24139527457693966
-0.4735097730181316 0.1655511683928086 -0.03527025261749117
0.30541476205467366 0.4150052977951462 0.352033857840912
0.35795227329716056 -0.00661010680174836 0.008728123759697826
0.10729574209422323 -0.6546197924825863 -0.40499479229489876
0.35986318325166006 -0.17655596768970588 0.25181969378393704
0.5865327394731035 -0.13653396569871587 0.2828206792689293
-0.2289012868361927 -0.928088124080018 -0.2776835447029306
-0.27814850943518044 0.067893359412733 0.03274452815589183
0.04571309023368861 0.7539150380805615 0.00652602275974838
0.19230070455420195 -0.17032774257870742 -0.38232913797340445
0.05966173190103513 -0.5731273407771068 -0.4107645591768973
0.3324317655496669 -0.012114608551246986 0.020520410149944882
0.1597051252727101 0.5495938190221126 0.03437663945113142
-0.17429570856070636 -0.30231666550717445 0.096061913882926
0.5190482887646203 -0.07698444595373077 0.40795775377489796
0.5964076094056008 -0.028960445965742758 0.33076259721591733
-0.09385550858082649 -0.9474574837550132 -0.22123212150544466
-0.32794428030816797 0.7869930996030533 0.023609297492844107
0.21629768954069595 0.2072492556310032 -0.16412604398095895
0.33471704969116634 0.34515548290516374 -0.09576471683447603
-0.4424977765276393 0.3419993283286645 0.13349272597961664
0.015179772182296247 0.88021227216603 0.050274259121992446
-0.31945179206617014 0.8764885503060308 0.02231250134509443
-0.4614016709701346 0.035720202342241075 0.05500567817533626
-0.2548742468096863 0.4103146094521474 0.03178687097754206
0.2088742698326978 -0.24208646542218948 0.18631221906295342
0.30000135135067507 0.47697924075113074 0.04696190842747326
-0.27410446741518146 -0.515540783012621 0.1316249591466671
0.11746590717422067 -0.5930182217126018 0.21488677933594627
-0.036356137959890865 0.25354551874598663 -0.0967206723119758
0.4136609541236466 -0.3664607775471584 0.28731617251442815
-0.26635271954318335 0.1963996814816409 -0.10171366280597455
0.19983323331670008 0.37790521626365553 0.09225671058222694
0.20265405272569936 0.3148111537481713 0.05715122264703572
-0.1369633949132157 0.45571799013113606 0.0336273305168516
-0.4646879556116338 0.33099132583016727 0.14387280086446402
0.18165806723820463 -0.923453491765019 -0.30230215099992436
0.47435661944113144 -0.535827059145616 -0.03231089473929191
-0.0020624314001844433 0.8689319975315328 0.2192851755329452
-0.12756900522071807 -0.183847255331704 -0.3421279568929145
0.04321108948393924 0.9567838054135108 0.1648747923549588
-0.5964076094056008 0.5087760216336228 0.1307747093219673
-0.22272311175019427 0.5574186399306106 -0.1123753191314719
-0.0954414937730261 0.8146036963945462 0.15222815203796194
-0.04609266962328843 0.4063126094531484 -0.0923362901219769
-0.3415698991141645 -0.5930432467251017 0.055772244358236064
-0.045465142409838594 0.7157228650035711 0.16992584087795753
-0.3808101197146548 0.2195269171536951 -0.04702089738693823
0.2036840822401991 0.22244753631254438 -0.07060156626548235
0.20874614176869785 0.24999176677088747 0.022201390289594457
0.3265869236301684 0.47763389507813053 0.04750599223924313
0.050954428951737296 0.40849979554564786 0.10605750447572349
-0.1658642813492085 0.47589816021113096 -0.1390920224764652
0.3588631837521603 -0.23082520979719226 0.2748086712669313
0.44191719623763953 0.17768749865490557 0.009084680137797738
0.40600330029864856 -0.6499711461605876 -0.0815795387489796
0.0345346173500414 0.384113421364654 -0.1627977163174593
0.22588126832769356 0.29158053474447704 0.37729610745940567
0.16871212777170785 -0.3717280421781571 -0.3875153215639031
0.20982421930719758 0.38653684357515333 0.23381569879094155
-0.3066069536501733 0.6369841656735908 0.027291277631993186
-0.14843586164371284 0.6696408059855826 -0.061339308638984645
0.05481678938098634 0.9290170525440178 0.16138029960945965
0.3051464939206737 0.1734534667400066 0.37608689885540597
0.25258395766568686 -0.8862162731650285 -0.07094390843648225
-0.05574341554383602 0.44540067797763866 0.04496146898825377
0.27408244540418153 0.4716659300971321 0.04546838565145864
-0.17243584963170686 0.6525907644690868 0.06213570463678447
0.535884116174116 -0.4232064948916442 0.1775184296704556
0.1061045514992235 0.7519720961100621 0.11889033088572029
0.36501433182465876 0.2894155708630776 -0.13527821057146616
-0.07965451468743004 0.3483116374816629 -0.1327176512924668
0.23720858998569072 0.16394956759280901 -0.23546334561394108
0.1185099506957204 0.5093596049251227 0.09117603044242721
-0.01723131269704065 0.2608761457076348 -0.008016512504247984
-0.05996963965483497 0.2111735279411772 -0.123882820879469
-0.36886417974765773 0.0009814809902497499 0.08543178907317865
0.1341625955142165 -0.5745827955041063 0.22785774381494303
0.4693245899276327 -0.08103048997472975 0.11908362408227023
0.4712254898771322 0.08250596471172937 0.40964143661589764
-0.4521844583661369 0.010869363929247276 0.052188272178041964
-0.15992034038021 -0.09740785915522567 -0.3216054446419196
-0.23684522680419076 0.4192545449176452 -0.12891084639096775
-0.44281409268563926 -0.01617666858024595 0.046860086656613294
-0.31236570952667186 -0.7884315373215528 -0.03772870984549055
0.1137962393412216 0.7280201561460679 0.10829874459522293
-0.3246389766571688 0.7540301531380613 0.02112281225084473
0.3708862007576573 -0.26539876606668367 0.28915200743142766
0.12798442042821803 -0.20147787713819965 0.05302763111730175
-0.2137361292611965 0.2544471198963364 -0.1924273311174519
0.19426066353320146 -0.0896160712632276 -0.37510591836540624
0.025693480633893616 0.00016766758374994517 -0.016566758475095845
-0.32143277205566956 -0.7193514918160702 -0.311943787815922
-0.0690222877766327 0.691658812983577 0.13788141247176555
-0.08442638417097885 0.24853350924248785 -0.01568687903559607
0.32576209921816857 0.47207233630013196 0.09549084309767614
0.14444186964871394 -0.7465036303785634 -0.41822801890489547
0.03352610934629165 0.748022148137063 0.18053644617795486
0.2848502077826788 0.07300046396373175 0.3487946202229128
0.16839280861220796 0.25466834100683633 -0.19680570730445077
-0.07519125365803116 0.37779810921015555 -0.036634816499090825
0.45637464645913595 0.10690154809732326 0.4025553540763993
0.049705280427787615 0.5941263292661014 -0.06134231164048465
-0.15170412827621202 0.7794125228165552 -0.002941740269399256
0.4448861637206388 0.1382890198753654 0.3408947242769148
-0.5459631902086134 0.41923052090564517 0.039751751876000066
0.43106334781614225 0.40960790309914763 0.08376392204007907
0.20707046693169825 0.29089995450452727 0.040903683231389786
0.22760499118869312 -0.9205505903150198 -0.3135343776104216
0.04246814691283942 0.6883605163360779 0.16505497244495873
-0.4533476209471366 0.1791417521813052 -0.048276752614237924
-0.13684227385271575 -0.7126978414925718 -0.4381959768788904
0.19652893066620092 -0.06366513330073406 -0.3692861014584076
0.2125489426681969 0.3124357795616719 0.25918605646343523
0.1817541632862046 0.22166305222069457 0.02971099614064258
0.5056428900686236 -0.29784119227167555 0.2992430934719252
0.12602346044871854 0.6936538069800765 0.09215410803097697
-0.4022805794391494 0.09248293669522688 0.11178382793602205
-0.3800763863481549 0.10786320927767303 -0.09884079137097529
-0.4989772277391252 0.35017049541016243 0.008881877436497793
-0.2590414118911852 -0.9282983341850177 -0.2754002625624311
0.07353229552938166 -0.6419911701745895 0.17655346518845585
0.10900745294922277 0.21603512710954598 0.005896893945498533
-0.09991006010507499 0.4979391902206255 -0.07159355776098209
-0.010245970847862397 0.23143351780104213 -0.011551145369797101
-0.05010267762628744 0.3826970056571543 0.01916335377209522
-0.08356632454137906 -0.8697898549600325 -0.46807484080338296
0.26423760548668396 -0.651866040107087 0.20478167928844881
-0.027114601043743178 0.2912859402973272 0.004057555526748994
-0.327765101218668 -0.7533294527880616 -0.032925308846191756
0.24509246992368877 0.29166021438427703 0.15746538665396062
0.12206049946921951 -0.6865687254410783 -0.407706502649398
0.03478046307284134 -0.13091835289371725 -0.02203932830864448
-0.42038667648314487 -0.04032880864423992 -0.08005601598797997
-0.08104560508227969 -0.2050804779376987 0.014677269931296342
0.25031969453468744 0.4645708385531338 0.05462399668468635
0.416230522407146 0.1340006336333165 0.25620007197193595
0.021629919104144635 0.7401582882090649 0.0014461454223496455
-0.40879208769164777 0.14977109621066254 -0.07578474685448104
-0.3250894268821687 -0.7256948319845686 -0.013231625009196684
-0.2875028591076781 0.3504898145696624 -0.05179496907158704
0.38318048889865425 0.010794288891747302 6.846843419999301e-05
-0.5490753007631126 0.2912016560552272 0.10797732333467301
0.3957030051536511 -0.6286948805330929 0.14018391382186496
0.2149453378651963 0.2391615419611902 -0.09322117456397667
-0.06774461073843302 0.236002384383191 -0.08003699697847998
-0.16414155948870893 0.8322683522180419 0.0016530522256995978
0.3925788825931519 -0.6711653297470822 -0.09158754174797709
-0.19948688714370008 0.4642575253966339 -0.1383042350829654
0.3649492667921588 -0.3657150321746586 -0.3112510954699222
-0.2050304279126987 0.4023256244616494 0.049571736951082614
-0.15710052197171068 0.8065015983475482 0.0035385367674991256
0.36800331931765806 0.42317946787814414 0.3148356782604213
-0.06577394105408352 0.2351757581702912 -0.036897779330440764
-0.26013950943968495 0.13929842877956516 -0.1179228639024705
0.5703575723936075 -0.3464297565416634 0.1276742103732681
-0.4512775519131371 0.15697189340746073 0.11373197510912157
0.036645226904290874 0.19560198418319108 0.00756345967794812
0.30039674654817494 0.08425971758772893 0.4555923645683861
0.05066193660563737 0.5180833242826205 -0.09784679787447553
0.2739252883256816 -0.4350703528176412 0.28915501043292774
0.062175544456684495 -0.32040474454216994 0.0696029681666826
-0.10528823559147363 0.4688340996826328 -0.001091190645049717
-0.1981015024517004 0.327761097216668 0.04609572267481349
-0.10925870407472264 -0.5086208665561228 0.11157261683052211
-0.10426231017902389 0.48358384205012905 -0.09777172283697554
-0.058311182026435385 0.5935757789911016 0.008040636616297997
0.023073461925194272 0.9812572666380046 0.16745637264445815
-0.1994008011007001 -0.5380302612461154 0.13636459641411594
0.4935337870201266 -0.3525048285761619 0.27815401493793046
0.4651664338506337 0.16885336894225778 -0.09557052273747609
0.5804286384241049 -0.22356895717269412 0.22632521204944342
0.31660594764467087 -0.6486788545150878 0.1896475527289526
0.5836878960521042 -0.047321798137238164 0.3610058253224097
0.02511059804274376 -0.7193024427915702 -0.44884361919738774
-0.1289623979167177 -0.5979161171591005 0.12649322998336837
0.3009222718106748 -0.8650451125900337 -0.21741830960044564
-0.22405644441619393 0.5308140486416173 -0.11529924159197115
-0.2587671377541852 -0.4483155914336379 0.13502175424336627
-0.363779097207659 -0.7547728955090612 -0.14176269181046455
0.26827764350468297 -0.8835436018300289 -0.09227222608997691
-0.5435918200241141 0.5624686874531093 0.136081012972466
-0.029365350667992618 0.2595721423562851 -0.15453645919096134
-0.2368472288051907 0.7535596829030615 0.0916102644593271
0.3726329466301569 0.16840311891735787 0.04726524160898819
0.2932375909721767 0.43119447888164214 0.33178561972691706
-0.008901238187568432 -0.831751835960042 0.02021170159574496
0.17440181461370644 -0.2643507185431839 0.16884976534045779
0.1677061222692081 0.499706957103625 0.010288983839347437
0.4584957665186354 -0.41201631030214697 -0.2062801770369484
-0.09175120532972703 0.45492519773513623 -0.09600095295247599
0.38796026628615304 0.22603582280489348 0.4067895861913983
0.01630419604394596 -0.8402503302050397 0.01760259379249561
-0.07174721133773203 -0.9999999999999999 -0.05466213480373632
-0.047749125250688015 0.4735708340486316 -0.05829726811948541
-0.2029463448716992 0.8323884722780419 -0.03134623055744216
-0.3552826049636611 -0.4723496134386319 0.07118675115778221
-0.4930282817676267 0.5369061376846157 0.0771956570592307
0.03699357507829079 0.32497331082416875 -0.18683574232445327
0.33471004268766635 0.12389743548676901 -0.2748907533079312
-0.5859201271671034 0.4762174793706309 0.09702157306227575
0.3575228440826606 -0.728541677406568 -0.12369963778796907
-0.3018792282886745 0.5569802017116107 0.0033281264623991774
0.327930266301168 -0.16612754448070843 0.19764454572345058
0.3552075299261612 -0.044875352915238774 0.3047696172324238
-0.44231259143513935 0.4768290906761308 0.10145890817872465
-0.507754000123123 0.49043068547012736 0.17350141466395663
-0.10606240937817345 -0.06198445346123449 0.0025107094540993812
0.30303238086467427 0.39463894162215135 0.36941523052290764
0.44329457292563923 -0.08434680463122893 0.12258762633251935
-0.014987980486496211 0.8401782581690399 0.03471484749006633
0.06692829483068331 0.896490542297026 0.15584476684446105
-0.034033816799891446 0.31737171302717065 0.011620915104647104
0.23465703971119137 -0.6504516264005873 0.2099728678814475
0.2057651622796986 0.34969101617066256 0.12713757400521825
-0.3330493828581667 0.2127143079507968 0.013608401597396609
-0.4219722612751444 0.35109141587016224 0.11927061097567018
-0.09830755840462538 -0.8185986893900453 0.021262952320844693
0.41632761945564595 0.3971084098556507 0.27260246616493183
-0.4178471382146455 -0.12485829586671877 0.04014463456224497
0.03530578813524121 -0.387620927116653 0.06744330958793315
-0.2054348321146986 0.07152799222823213 -0.24678966627143828
-0.2903497045296774 0.13326720056696667 -0.003476775036649122
0.4653215889281337 0.1374638951632156 -0.10778272883747304
0.4931654188361267 -0.017994485488245508 0.15614406599396097
0.20982822330919756 0.41790019124114547 0.08694380032842827
0.3673206369766582 0.10739203834232315 -0.2709047693169323
-0.51938862893462 0.20683490148403327 0.08976682193852756
0.38282012871865434 -0.2956560081801761 0.2943692220374264
0.5748510636381063 -0.3244738115746689 0.11327251587962169
0.48011537531763 -0.42404333130964394 -0.1579889099154605
0.5422845133711144 -0.3908631677361523 0.03899444494772526
0.031760144264192096 0.2471033798281382 0.0028716702343992936
0.11027271758122247 -0.7374515828570656 -0.42604883581139347
-0.2961555074296759 0.471997261262632 -0.031369754069192145
-0.4590012717711352 0.3436089371326641 -0.003054452925699225
0.1412917210752147 -0.17983424432720502 0.0452262136004937
-0.04935382915223762 0.8701632281465324 0.062415083876334404
0.31772606720417057 -0.8213214107500445 -0.1602221420309599
-0.1962566585302009 0.05107755201323723 -0.26285472329593423
0.07693759913033081 0.2167615531723958 0.00428958744264894
-0.05810407502298543 0.5313746089216171 -0.005127124560998706
-0.3004838335916748 0.8939159690110265 0.030047032008492496
0.31400134434367155 0.44457585356563883 0.2915794336439271
0.23478316577419134 0.24283120979418926 0.41442321600439636
0.5662484653411085 0.01931080114574516 0.36868450015790777
0.5426098385336144 -0.06667814480573332 0.4008956952473998
-0.015269131496931142 -0.1595749952077101 -0.010105200147547462
-0.0830290875730292 -0.052788261867736795 -0.010690485139897316
0.5007850346421248 -0.32221555444666944 0.2891640194374277
-0.04566163880798855 0.3531654889061617 0.010147642568747471
-0.4941173703116264 0.5135838270351216 0.06345952779803414
0.3216599991691696 0.4658040711691335 0.12660093763716837
0.2184978886396954 -0.5440953232756139 -0.3679878038099079
0.45507734981113623 0.36294226078965924 0.06392589393098402
0.2695869521586826 0.14652925599136335 -0.2534613346039366
0.23386925231769157 -0.8268869735300431 0.0014177170081496548
0.046271648512688474 0.6237419300590941 -0.05009236732113746
-0.17640982161670585 -0.43176504916664205 -0.35425707995141137
0.3750093218171563 0.28626972659172845 0.2283992850854429
-0.02362080899859405 0.9999999999999999 0.15610502697446096
0.35235768150266195 0.20265035903385434 0.45070347812638734
0.3470003268266633 0.17954205228125508 -0.21990479484244502
0.5207870266331197 -0.42658286957814334 0.20298388239044926
0.4660863533101335 0.19420080370330145 -0.0819769359474795
-0.10536891623177361 -0.9182182591500203 -0.3140508938684215
-0.3938761792411515 0.3324978315826669 0.05118462903672222
-0.16467609375570877 -0.07161608027223211 -0.31807591687892045
-0.3870473538301532 -0.051459934204237154 0.08072168132047984
0.04008576572284001 0.5407399695996148 -0.08806802398997798
0.07675862024093084 0.8704605252950323 0.14912204748646274
0.15642384563371092 -0.15619962152171094 0.038652713387030344
-0.3428792077681642 -0.003675173335749075 0.08143989917922964
0.21179218629019708 0.3018902392941745 -0.055119191632036206
-0.17113354798120717 0.16226548435160942 -0.0171532446680457
0.5197670071236201 0.05434882164723641 0.384208015911904
0.03457946217244139 0.35300432782566177 -0.17780071181145554
0.568525741478608 -0.27724460598368067 0.07143880308368215
-0.09490976230742623 -0.8863263832200282 -0.41496475727489623
0.1072857320892232 -0.23784923030569055 0.06109936881913473
0.4506339085916373 -0.47974300313163004 -0.16703395043345823
0.00908458003774777 0.7856377449260535 0.01834934016549542
0.30958392913717264 0.05941288317673515 0.4515573315528871
-0.09923888926982515 0.9540030260245116 0.17082674132795728
0.260145515442685 0.19764320438278057 0.05752199323223563
-0.4985928435471253 0.31137972403417213 0.14696188840746327
-0.259757127248685 0.631719904044092 0.06853209783178288
0.420322612451145 0.35025758245366245 0.2508667413079373
0.28106242189067976 0.16701893542595825 0.4095713665808976
0.20355795617719916 0.3940013043036515 0.12616500191941846
0.276228590476181 0.029891376430742512 0.028570856571142868
-0.34947580106316256 -0.5089241697076227 0.06453400173473388
-0.18472012776770377 0.8855846418495286 0.006457954725748398
0.061314283626484715 0.5809761856976048 0.13190413818611701
0.40089619574764984 0.15003055554026248 0.2713291935289322
0.26997734235368254 0.2819753343466795 0.1611290484839597
0.2825669256421794 0.23946404431229013 0.28704990638142824
-0.34919051592066264 0.23022160649569243 -0.007453649923098123
0.3472976239751632 0.09947792818922511 -0.2885043601079279
0.47003830328413254 0.020920409949744756 -0.1367697013164658
0.47067393860163237 -0.4621193883286345 0.21520409649444622
0.4613366059376347 -0.5582865073641105 -0.04199667567733948
-0.4171444358636457 0.367962278297158 0.03264883250809185
0.416261553422646 -0.09651997171172587 0.06873780343453283
0.3054057530501737 -0.0156351273097461 0.01751480604864563
-0.20169509424669954 0.8948529054790264 -0.011705799947047065
0.3977060071541506 0.24865422990278782 0.3455123395834136
-0.19125866303370212 0.24606554250973847 0.01727676812974569
0.3809692787941548 -0.08589635340522854 0.3289898253304177
-0.03684682840499075 0.4949832357441262 0.0956437959740761
0.19963003021520012 -0.827397483785043 0.016506097844795883
-0.3186589996701703 0.02069518483724481 0.07170386801608208
0.27249585961168193 -0.20332872706269917 0.2248627503189438
-0.04093121074513972 -0.7083004462960729 -0.4586053760733853
-0.16925366904220765 0.6621282972330844 -0.07675972134148079
0.3015659151321746 0.13602105304251597 -0.26558044765743355
-0.3513436679961621 -0.7267488855110683 -0.2603612310504349
0.2032646630306992 -0.3244948325851688 -0.3800698798449049
-0.4023046034511493 -0.23188326732569203 0.04183243151529955
-0.455946218245136 0.24007955951973997 -0.03679787948054079
0.4215278170531446 0.171878492553307 0.025983970978993513
0.44474302064913884 -0.40630660345014846 -0.2287746602729428
-0.014132325259096426 0.4857700271421285 0.108054800773373
-0.2906119666606773 0.4155148070496461 -0.049838413494287526
0.30501836585667375 0.18136807739335464 0.06250597472173439
0.3580814023616605 -0.15378020331321154 0.19341331660995165
0.32668502167916835 -0.35304436784566173 -0.3344002330329164
0.46485412169463386 0.10692347000827326 -0.12167561477696957
0.44526153890813874 -0.05067615081273732 0.4283221079468929
0.5129732167301218 -0.1703557705927074 0.3571129343779107
0.5524546784511118 -0.3607971167181598 0.04969170686100759
0.4936178710621266 -0.47763189307713055 -0.058812783376985284
-0.10111196140542468 0.8457468239505385 0.15466358625446133
-0.25440177457368635 -0.7093354808130727 -0.37788069175140554
-0.06231798682783438 0.768261377246558 0.05114479922682722
0.38436667449115397 -0.0227932818852443 0.2216064956924446
-0.08858964535052781 -0.967627643830008 -0.15670662827496082
-0.34054387360166477 -0.8150751676300463 -0.0775204817214806
0.17402944242770654 0.4224747635261444 -0.033567750967091595
0.02674322985824335 -0.5150132557491212 -0.41343522851089665
-0.029856741813442493 -0.8915015558050271 -0.000104904852399962
-0.06602278977838344 0.611778973083597 0.026366753570193417
0.20909048594069776 -0.7626928114650594 -0.3850738813444037
0.10726170807722323 0.7463504773020634 0.047504140388318135
-0.027824210298193004 -0.02309258103474422 -0.011630825009597081
0.05530968202718621 0.7165116533975708 0.16256848720295936
-0.4391374178491401 -0.05693240393773579 -0.030868152718642267
-0.3543857085156613 -0.8405506303550399 -0.0803713311454799
-0.2333547380606916 0.3687330486821578 -0.14408601397096396
-0.023007696192344204 0.8747588214420312 0.05206220617507199
0.38813143737165295 0.45180307717563706 0.06415081874333398
