0.09539785881939673 -0.5686354564179534 -0.10764281190289912
0.09995040902244431 -0.5698448003321146 -0.0984837428880125
0.09958324684517819 -0.5741944094056535 -0.08527285017058128
0.10241167563482302 -0.576479586134219 -0.07477113903569702
0.10612441254583868 -0.5781888848084221 -0.06503377029810474
0.11165912223836665 -0.5787330682804026 -0.056803717127848145
0.11284408979865555 -0.5820232905948789 -0.04508640831989443
0.11721847440216725 -0.5832842612847084 -0.03597545333099152
0.12271994603139118 -0.5838299084023908 -0.027780155093220946
0.12911166020001383 -0.5838148461575309 -0.020294192786089533
0.13441263897981232 -0.5844812839632333 -0.011956175786509999
0.13998686710629257 -0.5849738406595454 -0.003841431285826076
0.14896816969774385 -0.5833487415308138 0.001645989344659269
0.15676969401821306 -0.582463661668982 0.008064368476797203
0.1648878714333615 -0.5813886272067786 0.014260033956580265
0.17387356496191858 -0.5797863343392572 0.019824362515767434
0.18440127576681725 -0.577247680786856 0.024268815830791896
0.19578995619707587 -0.5741974431440174 0.028123260257495175
0.20983062958054574 -0.5695476802546212 0.030085982532053822
0.22490141680903944 -0.5642987540383316 0.031383198411811336
0.2417550841729337 -0.5579993559958912 0.03148663824532829
0.2612742366422371 -0.5501249155077255 0.02979107122898336
0.2858786797383534 -0.5392302554194809 0.02461500795691025
0.31710790262232086 -0.5244158723062267 0.014951486797915747
-0.2755118901254478 -0.6719889348384934 -0.18919246674863086
-0.27990657948660636 -0.6793960199481603 -0.17132326877325205
-0.2781078653658849 -0.6823106973872595 -0.1601333514293166
-0.27518315530079257 -0.6844008898965869 -0.15018157190226045
-0.27173179890040294 -0.6861020453783392 -0.14081972142830534
-0.2695916827667694 -0.6887230888778895 -0.13014109544566685
-0.2661389691676381 -0.6903978987370069 -0.1208597188735783
-0.2629180172124735 -0.6922251672547862 -0.11137689142942303
-0.2576986832511031 -0.6926358130152699 -0.10394697344680583
-0.2538710900700954 -0.6940190114270813 -0.09513103620793352
-0.24638999771139042 -0.692842027388803 -0.0899752776935073
-0.24064790272876788 -0.6928834618680377 -0.08307810013465543
-0.23519550314816892 -0.6931257617610586 -0.07589716159180787
-0.2287885670642461 -0.6927067066907238 -0.06964904437241536
-0.22252171517986882 -0.6923871795281207 -0.0632563987928915
-0.21406583478367322 -0.6905662978279499 -0.058955489203617095
-0.20674449270039974 -0.6895342413259035 -0.05353712603852318
-0.19932120104105133 -0.688439540787814 -0.04819356847466831
-0.19167982617211415 -0.687203798027538 -0.0430319287656943
-0.18352330123957492 -0.68562683953653 -0.03832463129434184
-0.17361473917833598 -0.682876037192568 -0.03520512329219161
-0.16557354952710943 -0.6814011613363352 -0.0303161474716186
-0.15765972366369152 -0.6800214490624684 -0.025281206256952342
-0.14861500529573632 -0.6778936275527313 -0.021241224778723405
-0.13647983894574936 -0.6737170214011614 -0.019933816602532396
-0.1240487500465706 -0.6693701799485862 -0.018807501317281157
-0.10734527934343518 -0.6622175296853962 -0.021376119688962008
-0.09153103993357714 -0.655697786435464 -0.02302330656192288
-0.07594321320793886 -0.6493683171267838 -0.024345484253833444
-0.05894648112961518 -0.6421528365453705 -0.02676379951779529
-0.04005286422158003 -0.633740173614992 -0.030671813377189504
-0.018338136752409733 -0.6235378977789842 -0.03682330336851408
0.014717370014955763 -0.6060172603745869 -0.05238018064049139
0.09087734915135158 -0.5606347964468006 -0.10382831169798871
0.0976508619542597 -0.5604169527428721 -0.09652213830653533
0.09942339012278653 -0.5634258623534358 -0.08506972275889234
0.10230365858202002 -0.5657044393704728 -0.0745841915619495
0.10422558505910465 -0.5685836699718448 -0.06335917333290757
0.10915775173375483 -0.5695220531489673 -0.054625572817704277
0.11217868985081457 -0.5716726543081747 -0.04437254839344928
0.11895286794722358 -0.5714264158776287 -0.03715371473279154
0.12385549559043466 -0.5723672207230943 -0.028447417862864404
0.13011550825762289 -0.572445539074018 -0.020824804270652066
0.13422752771612723 -0.5738757870422115 -0.011527221148882064
0.14001276032934687 -0.574247606273984 -0.0035509907550815333
0.1491487303538829 -0.5725207172396175 0.00184408713748155
0.15599404163140607 -0.572233416894197 0.009018878368380974
0.16404976129269186 -0.5711950800215023 0.01528336180789515
0.17183779346096323 -0.5703291340007558 0.02176877591318184
0.18393277608349698 -0.56680507432659 0.025059344180278557
0.19639316450845454 -0.5630766098772135 0.028144469814303262
0.21221810183780673 -0.5573015695604273 0.02882719400490719
0.22606533448296048 -0.5527727570294911 0.031056672361579017
0.243334597390985 -0.5461788468600808 0.03089364884212317
0.2637362749950768 -0.5377142644248938 0.02860176595506872
0.28987073347277886 -0.5258150111503191 0.02237927584133014
0.31671639070292246 -0.5135535188703849 0.015868021736469243
-0.27542455039465213 -0.6572510604778404 -0.20355226811860322
-0.2757684805228675 -0.6618203494653702 -0.18985187905496392
-0.2753864423829217 -0.6658318829935015 -0.17701759568251135
-0.27808811945477874 -0.6720466290908899 -0.16101726037458688
-0.2732539372069383 -0.672787712827391 -0.15303054495521248
-0.27107837423557785 -0.6754338511977944 -0.1422970455646213
-0.27035482763575985 -0.679101933609031 -0.13012047134713953
-0.2658950459584751 -0.6800796755496655 -0.12184443309010207
-0.2629399452862625 -0.6821212217982086 -0.11205844470346542
-0.25925696030060624 -0.6836334339257107 -0.10304829498581597
-0.2516967778505166 -0.6823969726484537 -0.09795265239212934
-0.24671851964212538 -0.6829867952545946 -0.09026308366198836
-0.24103622123936203 -0.6830788984868565 -0.08327992357108265
-0.2337618754889908 -0.6820571407282038 -0.07785852666762472
-0.22889336409650485 -0.6827194803259407 -0.07007443303687858
-0.22158777616333228 -0.6816843900855302 -0.06465748029400653
-0.21428623321464502 -0.6806590663537128 -0.059215060115920766
-0.20674545072304104 -0.6794755092156456 -0.05397912042876837
-0.1986865908764311 -0.677943338283117 -0.0492085136278721
-0.19113327425527052 -0.676768084007941 -0.04393220393108627
-0.18143276277762704 -0.6741326701687718 -0.040632055437576864
-0.17382603639421573 -0.6729412891791343 -0.035342599541213625
-0.16511444378802156 -0.6710072277485937 -0.03104320682112123
-0.1554545684374119 -0.6684436389957794 -0.027569230441701686
-0.14587777493919224 -0.6659527002932615 -0.023969007967554988
-0.13585957250900813 -0.6631808214511915 -0.020715749359987674
-0.1229826571290191 -0.6585094232171466 -0.019956330134602202
-0.10487866377130939 -0.650373069983554 -0.023731338517300315
-0.09046867265963056 -0.644749956090629 -0.024102492455571722
-0.075080034808156 -0.6385121908381102 -0.025217657421748203
-0.06035280514351716 -0.6327516273079032 -0.025639240607386378
-0.04457717936845023 -0.6263349513271276 -0.026850261061169774
-0.02358852661440125 -0.6165272211488821 -0.03238427884845681
0.0062574978577548904 -0.6009686141138025 -0.045229765763464234
0.08636713822670006 -0.5526274835406388 -0.10002246030858977
0.09565343797069513 -0.5507688930048381 -0.09481249367971177
0.09860103413221774 -0.5530428928025889 -0.08431767498549662
0.10430999749849641 -0.5535134682016319 -0.07613472459510241
0.10521229515613104 -0.5570872652179235 -0.06403841138556689
0.10797142697472416 -0.5594434686806432 -0.053512031167669956
0.11405500380547881 -0.5596505612415974 -0.04570095323252809
0.11780856312570852 -0.5613484967028055 -0.03603426527646939
0.12309668843506999 -0.5620568213873234 -0.027613459153640246
0.1290276735484626 -0.5623520254195342 -0.019710251374496394
0.1346010767110018 -0.5628725510546233 -0.011532889449509568
0.13998473816708978 -0.5635102747928277 -0.0032174924289599814
0.1478343765135427 -0.562589029576288 0.003192237887666502
0.1562136949336569 -0.5613402736751345 0.009215645574201495
0.1648431370983623 -0.5599424121945639 0.015073288732057015
0.1744920218003374 -0.5579155822382602 0.020191418246073418
0.18589350247755296 -0.5548085551421865 0.024040699995209868
0.19751655250230188 -0.551582227615535 0.027783055772884747
0.21225913714094108 -0.5464418772985892 0.029294176819045472
0.22962646431099543 -0.539709905421876 0.028986278986837814
0.24693375539553028 -0.533054389074284 0.02884342716632868
0.2668167169628553 -0.5248554716398687 0.026972382336191415
0.2919972510072544 -0.5134592600871801 0.021476499172374864
0.32935340124649387 -0.49469271423781325 0.007581285559937602
-0.27531608094226856 -0.6510844017946958 -0.19127385077200662
-0.2756498986092705 -0.6556641758077995 -0.17764102891631675
-0.2756061489086526 -0.6599376753048376 -0.1645012427682597
-0.2728001005923774 -0.6621748976778596 -0.15434106670498762
-0.2696672867202095 -0.6641604794371085 -0.14456609557872555
-0.26662460681154104 -0.6661980073129062 -0.13473851304241383
-0.26559960242060393 -0.6696735537849878 -0.12288561741898059
-0.26053283356485557 -0.6702281424473221 -0.11521321326116232
-0.257808855854849 -0.6724533629255883 -0.10518644185068689
-0.2527039523756301 -0.6729683000952701 -0.09759051983372988
-0.24683473311085927 -0.6729375369237893 -0.09076476818513259
-0.24096133580290285 -0.6729042456370052 -0.08394175754575892
-0.23562815681766172 -0.6732523271966662 -0.07658762979876205
-0.22822285469457712 -0.6721420587906561 -0.07125689909360415
-0.22075450935934904 -0.6709951460186176 -0.06596411672973651
-0.2142380393534412 -0.6705205522468294 -0.05973438822270836
-0.20682520610792662 -0.6694255057561195 -0.054348145427836975
-0.19798414738646106 -0.6673470224124075 -0.050289801848983726
-0.19075301910190706 -0.6663954664239677 -0.04467837050993419
-0.18319940975160606 -0.665228036000362 -0.039347879310436616
-0.17350909057039607 -0.6626003927892831 -0.03597010437124444
-0.1639837907891446 -0.6601029075987164 -0.03238840366816227
-0.1551312357959838 -0.6580808145321391 -0.028143884356022525
-0.14509432531255492 -0.6552659843416522 -0.02493078286416838
-0.1358523075039785 -0.6530084305992432 -0.020948229520935478
-0.11882031487010815 -0.6454985443378202 -0.023867031779739974
-0.10461206735963643 -0.6399394316796799 -0.024140494020342036
-0.08946128524059678 -0.633782353222948 -0.025134176393257674
-0.07644750568160655 -0.6290953871209823 -0.024144964792667957
-0.06109817337016403 -0.6228786983665715 -0.02508712683687538
-0.04605096414334152 -0.6169020741190184 -0.025650151420800824
-0.027669037772703846 -0.6087503659114255 -0.028943141356240744
0.0035386828253151778 -0.5921659295214677 -0.042940304544752984
0.08457459802966673 -0.5428279763900643 -0.09850069456641496
0.0904716265627744 -0.5431876872801206 -0.0904462788803909
0.09527571093263501 -0.5442616838844625 -0.08149289200423662
0.10077217955473235 -0.5448769739258171 -0.07312797053548145
0.10515321709325283 -0.546215251720449 -0.06386383837093575
0.1090818816629144 -0.5478393396030593 -0.05425769212345721
0.11288350178564774 -0.5495361307594459 -0.04457886921394245
0.11745619707590198 -0.5507251965277002 -0.035545860011602745
0.12393352121221796 -0.5506816863327426 -0.028041934779947545
0.13026155348693627 -0.5507345372484526 -0.020419214740775064
0.1352790374001394 -0.5516255249165722 -0.011774630495989633
0.14178262732387015 -0.5515637058444705 -0.004295933193887837
0.14698458381899757 -0.5523300973457451 0.0041845098383602695
0.15572196320128584 -0.5508510168345868 0.009956356746342196
0.16583921452788108 -0.5485088377588657 0.014711741631938327
0.175280234928441 -0.5466068966985476 0.02001804275974387
0.1875953498645462 -0.5429106058428737 0.023217598875920082
0.19826822771133712 -0.5402651061542311 0.02769896267437341
0.21253369046288462 -0.5353913256372181 0.029591829131339564
0.23135819668204824 -0.5277069461963841 0.02825214091448582
0.25003056358343045 -0.5201620921085547 0.027160314444320238
0.26909715680169466 -0.5124172507943605 0.025920766205219072
0.29340019533017186 -0.5014846689765657 0.021092358704966264
-0.27447259523011175 -0.6355891307009001 -0.2065307871220468
-0.2731737294224721 -0.6390414451239309 -0.19450943918419053
-0.2732024701017101 -0.6434496532490275 -0.18114882881732108
-0.27372294251331925 -0.6481895767136631 -0.1673603282824251
-0.26940015807373585 -0.6493486776626377 -0.15874110502589325
-0.26728077248558985 -0.6521090868447526 -0.14785440184791926
-0.2664884611495208 -0.6558168473603816 -0.13565401012310593
-0.262485603048641 -0.6571712252577347 -0.12681861970226788
-0.2581320022140968 -0.6582631847866005 -0.11836694396099787
-0.25645676656713884 -0.6612777360860518 -0.10723195324849512
-0.25079583739162375 -0.6614104222218674 -0.10015339006956311
-0.2445798139307137 -0.6611452628441564 -0.09362917604730506
-0.23986402731429005 -0.6619522106372447 -0.08561656740487637
-0.23382491870113425 -0.6618132441307808 -0.07891751425058682
-0.22612875025946455 -0.6605013651822639 -0.07382852459190899
-0.22166037299014837 -0.6614778829828568 -0.06559232410970427
-0.21491312597465503 -0.6608440711704376 -0.059561811088579865
-0.20782037873828424 -0.6599722971786235 -0.05384707297471355
-0.19998370030922846 -0.658586118251928 -0.048817959731115
-0.18975915044681116 -0.6555447423185213 -0.046002570694087426
-0.182134407915396 -0.6543295970450325 -0.04070372085349175
-0.1720965660210659 -0.6514513776897817 -0.0376128204718794
-0.164487125240171 -0.6502682729512952 -0.03223474748119883
-0.15362596933263084 -0.6468553971269966 -0.029797431434851824
-0.14390172018287592 -0.6442443596416996 -0.02626421732211385
-0.13256432057566522 -0.6405473236573047 -0.024128944525166746
-0.11603308105403785 -0.6333339720150943 -0.02655324743063652
-0.10394296837993053 -0.6291838445448594 -0.024906805686396635
-0.08973695625562178 -0.6236271801668025 -0.025039278928292028
-0.07572792423105382 -0.6182386753740281 -0.024892994193318346
-0.06185423951630505 -0.6129752989828994 -0.024526124745192612
-0.047412261093103876 -0.6073637611968896 -0.02454690851416013
-0.028584348571215716 -0.5988540452506028 -0.028202057619739547
-0.001543174887033202 -0.5849213623081959 -0.038650039651492676
0.07799521787031564 -0.5361814281988643 -0.0929557925774535
0.08814349848579196 -0.5337224768078687 -0.08846061728592187
0.09341166499012701 -0.5345026265787416 -0.07987793194845841
0.09853631438045204 -0.5353727506426736 -0.07119108826049703
0.10263830121296308 -0.5369092592888279 -0.06168550777861164
0.10619182008334795 -0.5387955526460054 -0.051763586623875014
0.11284893313534196 -0.5386454092087266 -0.04436983399596569
0.11654737954195869 -0.5404212372330178 -0.03461279918248737
0.12305778207113847 -0.5403627180166803 -0.027113610840558446
0.12915397286666985 -0.5405726846455583 -0.01928715131967621
0.135577062276794 -0.5405708218237558 -0.011718745841915642
0.14219997924284275 -0.5404407702502037 -0.00430418283329876
0.14803071793152264 -0.540819428699165 0.003721864737847728
0.15606408373117883 -0.5397887027841203 0.010062883541703238
0.16464248457849662 -0.5384171603144444 0.016010953392198483
0.17560793189523488 -0.5355378232661121 0.02019242949219476
0.18597219339283716 -0.5330564647900068 0.024874232916593464
0.19890911824660565 -0.5289656016648305 0.02769906912133355
0.21605759046661022 -0.5222475477281558 0.02750759765178004
0.23539224374224932 -0.5141968310739966 0.025844656628718307
0.2516217859670972 -0.5081368056331732 0.026568841910297125
0.27171915832388616 -0.49969856882062097 0.024627808203867202
0.29738442521302694 -0.48784498129194687 0.01887485563131029
-0.274398002522793 -0.6294344473007712 -0.19414720017883094
-0.2722531494994332 -0.6322694758019449 -0.18307107463528616
-0.2713548702145439 -0.6360093566877965 -0.17073727825767618
-0.2690151394189061 -0.6386591142548447 -0.15998988753878665
-0.26436101220414404 -0.6395871720768335 -0.15170339086791532
-0.26231297269103243 -0.6424212957788459 -0.14074422392182537
-0.25944289652823244 -0.6446354191615173 -0.1306847200711066
-0.2564326297189269 -0.6467326105584741 -0.12081216369413533
-0.25099321666746505 -0.6470516853214965 -0.11343538935636849
-0.24888152187218918 -0.6497777919707058 -0.10272690500141045
-0.24184984857919925 -0.6489362223038316 -0.09697107836092973
-0.23899278555727652 -0.6511024179426996 -0.08707145784434264
-0.23292166302085834 -0.6509509439184191 -0.08036806697642736
-0.2279094748439222 -0.6515571593564218 -0.0726295060328815
-0.22016529882322888 -0.6502145704599042 -0.06754400251214829
-0.21347901930415625 -0.6496317201296525 -0.06141566473465437
-0.2072959677891499 -0.6494088201951174 -0.054795621836529425
-0.19917707185702052 -0.6478229467711977 -0.05000164992788221
-0.19003697701277902 -0.6455299728028018 -0.04613480443032251
-0.18274291196304168 -0.6445451521393178 -0.04050160468792415
-0.1732633311511707 -0.6420410672372224 -0.03687085854795704
-0.1638294959204203 -0.6395852028080709 -0.033148727692708935
-0.15382052776402844 -0.6367464220515524 -0.029902734090171246
-0.14365995252465583 -0.6338211797516593 -0.026738465141281753
-0.13022663888401012 -0.6286591674783248 -0.02645765806042996
-0.11613907561459819 -0.6230807346969189 -0.02666059918993866
-0.10432758785865977 -0.6190967443197242 -0.024741147604677303
-0.09051686652083438 -0.6137732520078558 -0.024501881450020514
-0.07578721518785231 -0.6078582339384844 -0.02496226455263006
-0.06191424899008451 -0.602561858989712 -0.02456811807096821
-0.04839516571130524 -0.5975382011528206 -0.023769073964670276
-0.030393547717511096 -0.5895241022529499 -0.0266985475312289
-0.005054141585101722 -0.5766286917136365 -0.03568988274867343
0.07224878517406737 -0.5289985736107342 -0.08811099224533898
0.08474576474157336 -0.5249483998360718 -0.08558263743633145
0.09182930431589197 -0.5245280407904752 -0.07849603751190878
0.09465887741035832 -0.5269343009362011 -0.06790499076572623
0.09971995135373919 -0.5278493190055726 -0.05917783029161147
0.10472056342376 -0.5287988525017698 -0.0504178841537733
0.10865721151543212 -0.5304426330720061 -0.040819748040045366
0.11458393875041911 -0.530771767072762 -0.032838035627797586
0.12024742265297755 -0.5312712162097432 -0.024653249027340927
0.12705824511541508 -0.5310200546072906 -0.017378104924768635
0.13404409299206435 -0.5306569374145098 -0.010234103477089975
0.1409270598817374 -0.5303629042988606 -0.003003214698196278
0.14851294927270112 -0.5296168175552327 0.003693949022550767
0.15639220648581326 -0.5286865243470811 0.010181731572700593
0.1658862108607833 -0.5267251858830042 0.015465732062356609
0.17576400975054152 -0.5245300632827179 0.02049750647995868
0.1882595522840856 -0.5206774018425969 0.02361946276219215
0.20207208322023343 -0.5160095429699767 0.025837258564988513
0.22157449690505462 -0.5077591052068531 0.023965202488729912
0.23727960156902816 -0.5019597151479347 0.025003778867084984
0.25501134990712504 -0.49491609318366897 0.024681590530478404
0.27651773406355945 -0.48553973931139466 0.021778569033514807
0.3033379238584894 -0.4728857504776808 0.015261513569326224
-0.27186759860980275 -0.6214496745384194 -0.18439918674522457
-0.2713507720065785 -0.6255166935445241 -0.1716248862348114
-0.2680969279407304 -0.6275176835012535 -0.1618020139764859
-0.26511779686726605 -0.629709133681415 -0.15173340891067508
-0.2630916055927234 -0.6325908657863504 -0.1407242118933189
-0.2577494584510904 -0.6330087499401237 -0.1331733169405015
-0.25296027665564946 -0.6338303341902315 -0.12506716803184897
-0.24718709916066575 -0.6339261098426182 -0.11797130722189403
-0.2450899077637091 -0.6367041892201164 -0.10718849627701758
-0.24063097766210548 -0.637746092065976 -0.09881285027702824
-0.23622394045357056 -0.6388188645302763 -0.09040598870597755
-0.23205914991457638 -0.6400598498033394 -0.0817819221127593
-0.22732665112541056 -0.6408839887804905 -0.07373490449046505
-0.22024598561901576 -0.6400176701953835 -0.06797471352461855
-0.21434054777605693 -0.6399979242842774 -0.06106830169197446
-0.2059074204175915 -0.6381762708436455 -0.05657011927381886
-0.19789853741876773 -0.6366682899828089 -0.051634147120343636
-0.1909045729614077 -0.6358893643519775 -0.04571479133734641
-0.18218361302272115 -0.6338963046937788 -0.04138974489986005
-0.17378406968018015 -0.6321426708606769 -0.036727900280487766
-0.16332967421907854 -0.6289590551767819 -0.03391935046064924
-0.15432500651987635 -0.6268099176632763 -0.0297266442063581
-0.1423098591174483 -0.6225764954467314 -0.028217279535039698
-0.1301672680919915 -0.6182818662281052 -0.02674067391570468
-0.11782575430977134 -0.6138770644057333 -0.025358912537855223
-0.10421036314380457 -0.6086211393018145 -0.025020517651567188
-0.0919710384433197 -0.6043456439242737 -0.023372425979445114
-0.07777245099448077 -0.5987533996497896 -0.023351988163098057
-0.06350233118842713 -0.5931477430583276 -0.02328737485829251
-0.04882829839211871 -0.5873021017952281 -0.023463943753426284
-0.03339971631885127 -0.5809806160085584 -0.024174051424526468
-0.008254096877378462 -0.568116208146386 -0.032993075625242854
0.06665717958134408 -0.521724227860363 -0.08339634993373679
0.08126795627158874 -0.5162162363548304 -0.08263780889577249
0.08763039752617262 -0.5162783481560725 -0.07494757487213062
0.0943883956846402 -0.5160756731439643 -0.06758280242911965
0.09539402672883165 -0.5197114755145381 -0.0555219626690511
0.10152627643211075 -0.5199160665719289 -0.047676954765364314
0.10500379217295498 -0.5218796936456488 -0.03770212947143765
0.11152302979982646 -0.5218212276527914 -0.03018769260246853
0.11764596539409322 -0.5220244615114404 -0.022357880002341856
0.1258084247446603 -0.5208869160718943 -0.01613280854981986
0.13148734345643923 -0.5213830387413712 -0.007950683123366725
0.13980646612059372 -0.5201524586586619 -0.0018191253253285432
0.14831354750461712 -0.5188071287529208 0.004190949879448797
0.15651169319857144 -0.5176705945594959 0.010461181454810585
0.16437987992782893 -0.5167546184674832 0.017001868144150452
0.17666636063165625 -0.5129936610835236 0.020244428832223604
0.1902358199343222 -0.5084299339496613 0.022599142037501244
0.20429014514043015 -0.5035824458318032 0.024677013311192347
0.22068457370653635 -0.497267346862742 0.025125261460345827
0.23896840920340415 -0.48978489730529523 0.02431048981568707
0.25496738731258684 -0.48379911861917013 0.025277427389867296
0.2776294661152714 -0.4736249980041196 0.021575840797926394
-0.27337648426980055 -0.6120061792460362 -0.1837163561076605
-0.2699330847796814 -0.6139081203063544 -0.17400999004720927
-0.2679930889311129 -0.6169260779085302 -0.1627651460718411
-0.26378430918584045 -0.6182259815740313 -0.1539426357331801
-0.26066461490151 -0.6203294001181562 -0.14402020895538278
-0.25755338315051074 -0.6224250746459309 -0.13413080734696922
-0.2524467232964495 -0.6230288418038502 -0.12631504574558114
-0.2481980525528643 -0.624262056448823 -0.1176431844672596
-0.24285691665735262 -0.6246836130227211 -0.11009170405616145
-0.2405100805271254 -0.6272980568107427 -0.09956449887432343
-0.23776803344563496 -0.629606412364879 -0.08947931469447065
-0.2333742754953776 -0.6306966421306425 -0.08106079718128452
-0.22624376619989683 -0.6297932001681863 -0.07533054442297767
-0.21930228009388628 -0.6290327430849394 -0.06939889401608416
-0.21396534885330018 -0.6294346868064317 -0.06191053665234957
-0.20618261242129582 -0.628076263924593 -0.05676119156727184
-0.198205397393114 -0.626587629798762 -0.051768749301441846
-0.19037763389697004 -0.6252157147647257 -0.04660631124026678
-0.18170130184632258 -0.6232490273409018 -0.042208029294203454
-0.17268332827710278 -0.6210529467179742 -0.038087361020187685
-0.16207120503281233 -0.6177440961854732 -0.035388691074954653
-0.15288624279487142 -0.6154627781592128 -0.031324173572413225
-0.1415480714471997 -0.6116835118981091 -0.029164950209434416
-0.1296484456082646 -0.6075355665905571 -0.027437688610707524
-0.11749129796100852 -0.6032345505543226 -0.025860756731439664
-0.1058746613656081 -0.5993373676731227 -0.023723195324849535
-0.09298499896214218 -0.5945821158462268 -0.022630330996822583
-0.0793628750259465 -0.5893507001548804 -0.022086413642242432
-0.06519350726766625 -0.5837754075587988 -0.021917668598679017
-0.051266173285006454 -0.5784016722817439 -0.021436075939261386
-0.034086458882200514 -0.5708342248266246 -0.023628271248143855
-0.013655641422770108 -0.5610945142559092 -0.028432116112344145
0.030210112993448158 -0.5354640821344745 -0.052750190273941275
0.07723635749147091 -0.5078486004885916 -0.07923100054820187
0.08521910776158008 -0.5068158786930443 -0.07287907093093192
0.09174451931213971 -0.506772581392007 -0.0653100267714105
0.09611126634626128 -0.5081810077333717 -0.05597896608067618
0.09958045261247449 -0.5101826363718619 -0.04594634008739298
0.1045251001932012 -0.5111863779825108 -0.03713463411518628
0.10853048640938433 -0.5128099602420605 -0.027591557691591245
0.11565322507677483 -0.5123535955121963 -0.020543677848919854
0.12400486728725241 -0.5110865839573786 -0.014451877990494308
0.13239608115516238 -0.5098013965841172 -0.008367449584058525
0.1396301367311203 -0.5092857142857143 -0.0013643306881263952
0.14777213165360029 -0.5081776546541273 0.00495180613879617
0.15607113584228816 -0.5069737927584134 0.011168814234087488
0.16585084385827648 -0.5048115888805506 0.016288620287726114
0.1764381649608541 -0.50213742834789 0.02084156966687422
0.1889120189262695 -0.49825626573419135 0.02403806543294638
0.2022463102822441 -0.4938422030262871 0.026667970641928374
0.21879524661099486 -0.48738265553231463 0.027019591563013923
0.23642496553779666 -0.4802668625290734 0.02669870720166907
0.2555929494855951 -0.4722075768946229 0.025392336883339438
0.28100096068381525 -0.4602094876175574 0.01975762027175907
-0.27327740876164935 -0.6013041349321668 -0.18474825293926672
-0.2669981291946756 -0.6010785206001481 -0.17800446544997794
-0.26539525086887333 -0.6043945296907184 -0.1663490821610862
-0.26395457109858594 -0.607810386029901 -0.15459095094391845
-0.2610854263466872 -0.6101292532213513 -0.14437779090623623
-0.2542551507022839 -0.6094648379078915 -0.13827603825703752
-0.25081129881258424 -0.6113337271870859 -0.12870983623135185
-0.2479187357294545 -0.6136004885915471 -0.11862257633577632
-0.24294228711938562 -0.6143066577251222 -0.11067194643588968
-0.23725868474136058 -0.6144857015120792 -0.10343940772911381
-0.23449792960662533 -0.6168169431626457 -0.09331771224193268
-0.23008708691926535 -0.6179213303741079 -0.08486185845747712
-0.22486674171177365 -0.6184262881412765 -0.07721617248665424
-0.21945016153326205 -0.6187849877852114 -0.0697695423312949
-0.21323006647612666 -0.6185574840196502 -0.06310114590152595
-0.205287712827391 -0.6170838855269392 -0.05807009000090482
-0.19792735793322588 -0.6160405190353777 -0.05245887155577557
-0.19135335334536188 -0.615570236365475 -0.04608788793264039
-0.1808039007488544 -0.6122511403130606 -0.04341535071612195
-0.17286146726489862 -0.6108181779473834 -0.03826464843230242
-0.16229077849984305 -0.6075213559213783 -0.03550144501748394
-0.15014722945174497 -0.6031286624407225 -0.034109651013641204
-0.13919000516267763 -0.5996046559900367 -0.03155950118954481
-0.13045816102231664 -0.5976743734265809 -0.02694169899993083
-0.11922268437944088 -0.5939951406962697 -0.024520483056305144
-0.10614820344143026 -0.5890497213750818 -0.023657969950023176
-0.09262087052324007 -0.583819370153337 -0.023100108043664566
-0.07937634056640433 -0.5788195564355172 -0.02219706525730894
-0.06453284420955153 -0.5727407963297089 -0.022584851533102367
-0.04927023955888384 -0.5664103423866474 -0.02321924880380231
-0.036272772996535196 -0.5616836449568092 -0.02180334456348765
-0.013721878043717807 -0.5504121626296659 -0.028388792199566783
0.02166063910754865 -0.5304080378099603 -0.04554995821956817
0.07264181396264772 -0.49986058109395554 -0.07535457482422948
0.08256094088468065 -0.4974990552832288 -0.07060605576756245
0.08920498757231737 -0.49737842426564904 -0.06312278124617458
0.09337430210711754 -0.49893561023381083 -0.05361847812781089
0.09592596880039594 -0.501576239974027 -0.04283247377413022
0.10296091533741022 -0.5011816943162646 -0.03569456641491963
0.10884652743404276 -0.5015614704583075 -0.027632619606465608
0.11467343403215759 -0.5019784498129195 -0.019530302788378143
0.12129523330512484 -0.5018627153555063 -0.012058870491305967
0.13038146598753503 -0.5001084162289037 -0.006504893898992501
0.13626910057641026 -0.5004864626078441 0.0015543917354579938
0.14492890673649583 -0.4990293101704749 0.00748034722998396
0.15436220973244555 -0.4970712715621624 0.012843783763645148
0.16411551890231893 -0.4949148424318874 0.018000606747672784
0.1738873232315168 -0.4927593979359935 0.023182231873413256
0.18545563290701322 -0.489443282398463 0.027065416979354596
0.20024726298253734 -0.4840472730949986 0.028626940661142054
0.21611334206198404 -0.477985571114553 0.029495947031992615
0.2336726463246526 -0.4708633646819631 0.02923983564589352
0.2548918898061069 -0.46142016211872033 0.02646710522814243
0.2823333306721593 -0.4480268991468277 0.01940355107059028
-0.26643587635121113 -0.5899780187027309 -0.17949743728943462
-0.2650607412966305 -0.5935069483253232 -0.16756404115239482
-0.2624252742339811 -0.5960534257292948 -0.1570140297093466
-0.2573709330608292 -0.5967495622368765 -0.14901627041785756
-0.2554718660684348 -0.5998242826805474 -0.13779178442361634
-0.2518937047267773 -0.6016145076561977 -0.1283392411396212
-0.2457686135815677 -0.6014822473082225 -0.12149853369312409
-0.24120549851772616 -0.602518854417815 -0.11308555142186531
-0.23752687785743568 -0.6042077951108912 -0.10381037538520496
-0.2337920265904507 -0.6058438582765173 -0.09462325759632122
-0.22833890849287075 -0.6061975549133256 -0.08715563077807408
-0.22450655181039672 -0.607744655032014 -0.07811344052542223
-0.21805062351306906 -0.6073529036069553 -0.07164056054969213
-0.2100495111423356 -0.6058317765465413 -0.06664431280503709
-0.20531163678168265 -0.6067041626083763 -0.05850508550352076
-0.19849525246557778 -0.6060580561720609 -0.05235008276251153
-0.18899834741094385 -0.6034716877697766 -0.048701426921500715
-0.17996464630336326 -0.6012374459116385 -0.04457048651583135
-0.1713871236434666 -0.5993467616173552 -0.03997381404780535
-0.15939579374837007 -0.5950160468792414 -0.038478633433925734
-0.14977878991095717 -0.5924138977151161 -0.034734281775748214
-0.14012069754692985 -0.5897995071505746 -0.030977316152793987
-0.13008687402534508 -0.5869348331710018 -0.027508262945280963
-0.11859238531670638 -0.583052818981622 -0.025288125309361503
-0.10624017361499204 -0.5785895777781327 -0.02375430444895072
-0.09288871768669471 -0.573450850777329 -0.02301503031077192
-0.07800413280322752 -0.567268091991463 -0.023517273680456894
-0.06495860543837523 -0.5624125405163742 -0.022311602186420584
-0.050487300877655225 -0.5565926860293688 -0.022241134298807287
-0.03583426474423461 -0.5506833096488848 -0.022217849026276455
-0.01351720715110682 -0.5394952551267518 -0.028574888097633176
0.015082030688658571 -0.5240336478841007 -0.04000612070020813
0.06608734239196962 -0.4932241985874489 -0.0698434165216327
0.0793929995156663 -0.4885123238968104 -0.06791089857201404
0.08726842463821337 -0.487549857094956 -0.06143072697951431
0.09122575005189287 -0.48926929484211257 -0.05173758695386059
0.09548014231958567 -0.4907760781746475 -0.042315114936105236
0.10074716451909921 -0.4915866451643808 -0.03373226992820155
0.10451514740242802 -0.49340670190061053 -0.02396839589753418
0.11195014822739197 -0.4927422865871508 -0.01713697594830938
0.11937421162720142 -0.49208950060408657 -0.010284479500976672
0.12558493935184442 -0.49225446678056495 -0.0024743862002161087
0.1338774502759637 -0.4910270801066599 0.0037239936770505472
0.14181245908444967 -0.4900456657459005 0.010219067843970024
0.15147119013023783 -0.48792510924119287 0.01541972036383569
0.16201750254142114 -0.485229579481284 0.019987678764363668
0.17390360961641835 -0.4816655489735852 0.023599024945845093
0.1865444256388148 -0.4776261529536371 0.02671166711906623
0.199487151851911 -0.47341276937733856 0.029672436091906285
0.21573404493126186 -0.46706190422967003 0.03028639554625917
0.2332636771037911 -0.45991175547004326 0.030078478021363885
0.2538072485057508 -0.45084279380691594 0.027820551714594393
0.28588998972786833 -0.4343411465402077 0.01746076098931803
-0.2611612964175276 -0.5751809864439796 -0.18598056278507832
-0.26318011624008053 -0.5813742036436795 -0.17040723945775924
-0.2615805377700427 -0.5847511802306706 -0.15872894346069716
-0.2570264706978131 -0.585848116154923 -0.1501745996263712
-0.2536401533900696 -0.5878268054735027 -0.14044170166110484
-0.25096639203350957 -0.5903329660913209 -0.1300205708750473
-0.24389953802019304 -0.5895004444160586 -0.12409504116836187
-0.24119248537684893 -0.5919592893600941 -0.11377160207997364
-0.23499812387232757 -0.5917826672414803 -0.10697397904059357
-0.23112278922969662 -0.5933433659593267 -0.09787606380430794
-0.2284436256899094 -0.595786190635861 -0.08763216720688502
-0.2222637941954473 -0.5956100741403079 -0.08085019187064568
-0.2154681138130898 -0.5949789767253723 -0.07466048742063051
-0.20942538600328925 -0.5949084822260189 -0.06773409017121997
-0.20269485116053804 -0.5943323912777362 -0.0614619159388356
-0.19552929420343085 -0.5934411374922162 -0.05559006211180127
-0.18715604326004465 -0.5916728139786149 -0.05083590136624676
-0.17950133590934983 -0.5904400783449627 -0.04537690207411904
-0.1692901451404302 -0.5873583590136625 -0.04226181162081466
-0.1591618233299803 -0.5843569006903085 -0.03901166658683147
-0.14964684890386246 -0.581817927797027 -0.03514452836013138
-0.14116177542884822 -0.5800366443660286 -0.030296082219632037
-0.13063619356315237 -0.5768037171278483 -0.027248239633396693
-0.11869694284330479 -0.5725813121716777 -0.025400985698850926
-0.10536062899508752 -0.5673908253365055 -0.02471195452585865
-0.09101048768674794 -0.5615136225497241 -0.024817337016398176
-0.07734929771618052 -0.5561619217934185 -0.02421221265973699
-0.06446551650726239 -0.5513930979791045 -0.022834576101593004
-0.05038950273302575 -0.5458159957847005 -0.022393459898768963
-0.035126419071037425 -0.539441871976241 -0.022862305534709717
-0.014139363021390556 -0.5291065374400571 -0.028060935562332696
0.00921970386455685 -0.5171832803759707 -0.03506426735218511
0.05330013518763935 -0.4909395807054241 -0.05913378786185316
0.07507412700186811 -0.4803079244439478 -0.06426290802450411
0.08436763852741272 -0.4783590402742074 -0.0589462815415649
0.09018677449743726 -0.4788137284644495 -0.050761095765007716
0.09288100028208442 -0.48140994321054686 -0.040054713737512466
0.09797946372021478 -0.482345851495846 -0.031324705807213936
0.10379993027724108 -0.48278396057204603 -0.023186090575718406
0.11044863401938397 -0.48265654356075727 -0.015709575436299503
0.11702498044037105 -0.48257918323247495 -0.008173316940501493
0.12500413812557545 -0.4815547376880785 -0.001727634163087409
0.13286380909802165 -0.48061720608663727 0.004829126017233742
0.14199815580641553 -0.4788295092262903 0.010425282217503053
0.15125473023679126 -0.47697105174918975 0.015960417697871574
0.16091883685406652 -0.47485193227844397 0.02122081357411634
0.17335186841026784 -0.47090290972765547 0.024443362233682993
0.1856142122658832 -0.46709099086152855 0.027862012805569287
0.19990112407989905 -0.46196266905107863 0.029853076583265453
0.21652558452686987 -0.45532319958272793 0.030221409677093126
0.2332645020677322 -0.44864796393577 0.030621357518082655
0.2545311676699293 -0.43904362728661384 0.027871779314162216
0.28287639645105833 -0.42486821866334556 0.020222899934535098
-0.25858376311293496 -0.5623645329373508 -0.18961902632965563
-0.26137530803089093 -0.5692249064597338 -0.1731768563019262
-0.257060374054618 -0.5705465253051037 -0.16428204186558945
-0.2575119220595358 -0.5755299994145417 -0.15047786701581273
-0.2520413732722328 -0.5759345776982975 -0.14285751542150338
-0.24764106883392686 -0.5771552582137136 -0.13415257575031805
-0.2428551070590302 -0.5780738688679898 -0.12586134218972045
-0.23844921415531684 -0.5792752026484005 -0.1172053415084599
-0.23354477691378336 -0.5800912516565809 -0.10906941406270795
-0.23112890992990473 -0.5827797026936404 -0.09848379611149258
-0.22657832899561975 -0.5838449972589909 -0.09004824708468391
-0.21948329314960593 -0.5829965883749276 -0.08411566526688917
-0.21332083912138683 -0.5828505963690943 -0.0772626631964958
-0.20740204218493036 -0.5828872407351228 -0.07017188522888759
-0.1999443681574564 -0.5817820551714595 -0.06454986241730404
-0.1922576468834992 -0.5805150170049019 -0.059123089942359
-0.18471766274409623 -0.579364751153619 -0.053533586677098496
-0.17567949086418969 -0.5771216475860491 -0.04932004343035976
-0.16769924209764386 -0.5756681675688047 -0.04408338522622643
-0.15891880491997853 -0.5736403795898599 -0.03955451947181021
-0.14902312294091666 -0.5708146385859587 -0.036004992362430634
-0.13958165014077617 -0.5683368993064982 -0.03199045170767538
-0.12825438960651886 -0.5645123930873345 -0.029624880912463368
-0.11611265015674319 -0.5601260065890669 -0.02791459760387895
-0.10259290158446305 -0.5547784040407266 -0.02734321693358244
-0.0909553215496549 -0.5508126959289361 -0.025017723418863488
-0.07696622171837332 -0.5451945584313976 -0.024670679717064003
-0.06390680302522266 -0.5402737283580025 -0.023414845093061278
-0.05124994012358496 -0.535669844108427 -0.021722365038560437
-0.035547124069254435 -0.5289424494509999 -0.022544162182588492
-0.01494104168995198 -0.5188031103801753 -0.027395029991431046
0.005571686705306875 -0.5087933438715824 -0.03198329314960591
0.04142211808161285 -0.4881080383421951 -0.049182780075258024
0.07116430354415151 -0.47181553274042387 -0.06095347203372242
0.0808297141366885 -0.4695937717883622 -0.0559382767301623
0.08519148477542349 -0.4710647357188098 -0.04655862300212364
0.09244408873418594 -0.47052789708707904 -0.03954350221143562
0.09588998972786832 -0.4726187282781673 -0.02946143160516696
0.10211130892504534 -0.47278968209615363 -0.021627334514894615
0.10922976310229018 -0.472345132978865 -0.014504995023604635
0.11509397935993439 -0.47276024951167467 -0.00638982473508015
0.12389868644451182 -0.4711708101145903 -0.0005712209998563176
0.13270254195340814 -0.46959188235481975 0.005276575814186165
0.14061461144198373 -0.4686262753676413 0.011836529403311546
0.1501806005737491 -0.4665508257622934 0.017155338048933648
0.16182975671547256 -0.4630866957266868 0.020937691271881484
0.17378127544747637 -0.4594409139535998 0.0245540936839696
0.18529151830621593 -0.4561122110630327 0.028562141074156253
0.19862791198965332 -0.45158624598828023 0.03128076982441572
0.213521917429093 -0.4460521217540331 0.032937350641609034
0.23352287545173425 -0.4371665948149686 0.03097944509199677
0.2571112557015653 -0.42596347804797574 0.026587922527902392
0.2838158973212622 -0.4127737682756125 0.020158845476270292
-0.25820763277927694 -0.5559352696035383 -0.17738521025935805
-0.2578501306636436 -0.5603698765747498 -0.1643030119167372
-0.2530410965101365 -0.5613186649422259 -0.15591818486643572
-0.25026722178756383 -0.5638354968677982 -0.14545883962168754
-0.24884618148142243 -0.5673782912069489 -0.13366731067077556
-0.24510049923624314 -0.5691111146593433 -0.1242991532144321
-0.2395880369583846 -0.5694795542001311 -0.1167406206922246
-0.23458966027452677 -0.5702380686263552 -0.1086753474162662
-0.2307289620889152 -0.5718569406079187 -0.09949679860767378
-0.22654469175621525 -0.5732199140973033 -0.090666890205283
-0.21989638719017288 -0.5727126411087516 -0.08426785780815067
-0.21223340358832707 -0.5714450973191334 -0.07884161756800634
-0.2038532069807917 -0.5696480597380341 -0.07408040471134249
-0.1980425601558384 -0.5697849239170353 -0.06683115383182447
-0.19175173109368934 -0.5695631948990617 -0.06003882652871143
-0.18241992527423403 -0.5670839919738992 -0.056101965543119026
-0.17505882525134794 -0.5660805963158708 -0.050277879789447935
-0.16674651519264244 -0.5643819955611618 -0.04531574829551808
-0.1577536631060159 -0.5621941911893852 -0.040947138439594036
-0.1477871938984603 -0.5593069770660025 -0.037425899609871915
-0.1376284282574101 -0.556298253737619 -0.034024546669008525
-0.1256400788771975 -0.5519764805441569 -0.03221231378434913
-0.11473142101369446 -0.5484668710448302 -0.029355862832447187
-0.10261719810311522 -0.5441075220744385 -0.027502222080292966
-0.08942086200748327 -0.5389957527662904 -0.026519556967751916
-0.07771273424984171 -0.5349871465295631 -0.024143926934806582
-0.06509642764001772 -0.5303533506841879 -0.022481225417405167
-0.051463685619547964 -0.5250229659316504 -0.02160748215682833
-0.03511439056454149 -0.5177916513649162 -0.022954275708271486
-0.016952436837035068 -0.5093191386311986 -0.025704785323093157
0.0011911547898470509 -0.5009132883062692 -0.028286736176531668
0.031030765832654697 -0.4843079084769038 -0.04047206565648504
0.06458369924475879 -0.465194824548798 -0.05543334557473377
0.07820196447864937 -0.4601792832926174 -0.053677822308089464
0.0830442100837205 -0.46132976203782067 -0.04467799794557369
0.0910303134330741 -0.4602825368439541 -0.03824133654803155
0.0935901233188033 -0.46301157078456734 -0.027428826901275793
0.10145306753527383 -0.4620514458158361 -0.020888965175877013
0.10962151452734885 -0.4608864902840538 -0.014573121078094834
0.11628709011267409 -0.46076341098639084 -0.00705695444602343
0.12342459829578414 -0.46031745144688035 9.46047358252357e-05
0.13188856866095044 -0.45896703869879246 0.006229701895288105
0.14071089271743117 -0.45738065965181207 0.012114169687099139
0.15066834054511485 -0.4550323332641429 0.017163135288763974
0.16021743122195786 -0.4529752191476792 0.02256159287231153
0.17177019964127374 -0.44957658060429945 0.026495074166919458
0.1849224400836673 -0.44512081729976005 0.029298567756151285
0.19842095248739933 -0.4404592920212682 0.03192352318148673
0.21650583861576372 -0.43275394252928623 0.03127201456194413
0.23388660471453585 -0.425564887405728 0.03126341896991275
0.25659248644131843 -0.414873088611772 0.027540516374203624
0.2828041455768627 -0.40191750892823885 0.021492705722056325
-0.2507156029954175 -0.5391459494270493 -0.1861488288173211
-0.25346539409325824 -0.54608754198002 -0.16972914570992143
-0.2498402364186985 -0.5479932885191632 -0.16005061552954705
-0.24773051089218528 -0.5510678492923938 -0.14884986720741725
-0.24598049625572824 -0.5544010761787671 -0.13734092832393943
-0.2407847669077691 -0.5550432973010374 -0.12938800981440976
-0.23719742451579945 -0.5569226716058057 -0.11982883328809339
-0.23410937159037085 -0.5591736256366859 -0.10980655926168392
-0.2297183014258571 -0.5604106989839638 -0.10111830515150066
-0.22515100831882998 -0.5615050269576927 -0.09262639245929737
-0.2188094040566937 -0.5612413578374237 -0.08588726202451477
-0.21246569746709465 -0.5609781145049951 -0.07914451239308735
-0.2054507895703269 -0.5602092481118971 -0.07304180172124737
-0.19652348219940713 -0.5580042791677977 -0.0687501264057652
-0.18976048103381293 -0.5574400836673107 -0.062364799054751015
-0.18248153145241558 -0.5564936105212176 -0.056453559852464544
-0.17478656053904745 -0.5552432046921821 -0.050912410118848055
-0.16503484807357618 -0.5524712992383721 -0.04725356198140374
-0.15710606641225847 -0.5510693661615759 -0.04186548297646992
-0.14506340247063398 -0.5466367816826071 -0.040207039337474146
-0.13549728028016844 -0.5440575186149122 -0.03622166514979751
-0.12357232006471978 -0.5397634216310868 -0.0343098777456663
-0.11349448072511675 -0.5368490901446082 -0.03066955137928651
-0.10290095908711092 -0.5335777089420769 -0.02743217998052023
-0.09084065156184307 -0.5292610984261817 -0.025424350806601864
-0.07751349215219791 -0.5240542719826279 -0.024443096116282682
-0.06611307594458377 -0.5202729033940614 -0.021697775790767877
-0.04940830126618663 -0.5126960619947096 -0.023443665607519436
-0.034810857057699617 -0.5066803451010449 -0.023254402912388852
-0.0189159840755348 -0.4997745985619016 -0.024055123558309004
-0.002464978950113671 -0.4925160069616313 -0.025198949368503434
0.020822582190359065 -0.48044207422546537 -0.03191434213117461
0.06206032083113783 -0.4557204064144939 -0.053271487649491474
0.07524191402279026 -0.4509787265750159 -0.051144198374554944
0.08195882365464345 -0.45082070606268665 -0.04366268022800941
0.08684827848653709 -0.4519472874653383 -0.03469928733760188
0.0944307615747763 -0.4511818007632248 -0.02791693943700205
0.09930550011443046 -0.45231101672813984 -0.018963339666927485
0.10913845822222928 -0.44998392650901875 -0.013948516927727861
0.11541238882945597 -0.45013989791736525 -0.006100395450456946
0.1236045468819024 -0.4489687684618947 0.0002523591307541026
0.1323333306721593 -0.44743505404844414 0.006211552688584075
0.1401694236429343 -0.44652450675139854 0.012882211116256027
0.14971345808917058 -0.4444494829338912 0.018270077227269563
0.16021405153097337 -0.4417338346985157 0.02297221202105519
0.17299157206193083 -0.43748407287358904 0.026016195904985422
0.18478783790256909 -0.4339264557952387 0.029862550362717996
0.20005195942241877 -0.4280428129673687 0.031212963110805944
0.21391944360173934 -0.4231372846444938 0.03368559293617971
0.23606850128002466 -0.4126883978135795 0.030230031880864542
0.25933884462469464 -0.40154962823399176 0.02614355969279405
0.28330420678386475 -0.39001221478867626 0.021748258261614674
-0.2507435453224545 -0.528181220627292 -0.18701211366406406
-0.24878119561225637 -0.5314602926226935 -0.17547645659359087
-0.24737343456439248 -0.5351542948687243 -0.1634290557622401
-0.2452552997280281 -0.5382646750440425 -0.15218367955207124
-0.24517799262322573 -0.542952386274729 -0.13891320314870112
-0.24118386317307747 -0.5445508470516853 -0.12970365166296766
-0.23755572498363384 -0.5464234087510046 -0.12015578512616629
-0.23277074784311852 -0.5473865940698399 -0.11179863428550142
-0.22885514963781425 -0.5490151527247762 -0.10259722599221877
-0.22393745974974327 -0.5498613262226765 -0.09441230633306191
-0.21890113472459513 -0.550611032162949 -0.08635860916401883
-0.21037704843868926 -0.5486884670041036 -0.08170011762389098
-0.20418806250565505 -0.5485590008888322 -0.0747573807660988
-0.19603513015802057 -0.5469385854263468 -0.06968755156024635
-0.18983185372058742 -0.5468055001144305 -0.06273813515570532
-0.18216612910951802 -0.5455698638011146 -0.057161804701762256
-0.17357090964249794 -0.5436435463869241 -0.05242994459435727
-0.1648529036069553 -0.5416381122696089 -0.04777549803871478
-0.15571509737235684 -0.5393324178894762 -0.04346955883057372
-0.1439037426751186 -0.5350509614821676 -0.04156200269310811
-0.13275685651482014 -0.5312909621208493 -0.0389728666698601
-0.1211339661605114 -0.5272034786866575 -0.03674240367880696
-0.11226014838706248 -0.5251702619127455 -0.031982175456524424
-0.1006958836960514 -0.5211726463246527 -0.029568357576628526
-0.09015337676369312 -0.5179497251007255 -0.026182758785865994
-0.0792210344515587 -0.5144630549213092 -0.02307847269901592
-0.06444976235716153 -0.5082040002767622 -0.02323625370568482
-0.04951442888544715 -0.5018661216582309 -0.023421950427650686
-0.0360185510439786 -0.49661019655431193 -0.022265271147019244
-0.02152449344552847 -0.4906680611218446 -0.021859335664521785
-0.0070260981334525924 -0.4847606806218632 -0.021350599030268216
0.01541230899423586 -0.4732012326557985 -0.027358252566702344
0.05858205996157262 -0.4469059062095835 -0.050319154598242585
0.07206343440472196 -0.4419162049529771 -0.04843105164274274
0.0805080314231426 -0.44053335249378617 -0.042349071516390197
0.08469099778058085 -0.44217511057177994 -0.032795004444160614
0.09088126107713676 -0.4423908519482455 -0.02488014072288133
0.09934113323433763 -0.44100935668779645 -0.018776232522739755
0.10804620596422314 -0.43946481129615145 -0.012841441930522092
0.1161619617110284 -0.4383418490901447 -0.006416968709916088
0.12351611606976531 -0.4377567101502499 0.0006203728837013523
0.1290750158339853 -0.4384224826624514 0.009055070334828892
0.13842566276538557 -0.4364585628595912 0.014573041242874687
0.1490879225279024 -0.43360120710852806 0.019127853443825258
0.15911062234215245 -0.43120173295651115 0.024214687551560227
0.1719141425431243 -0.426908620607067 0.027260880209913387
0.18319781304720387 -0.42368149472821437 0.0315096840121988
