0.7806792753762892 0.48971996673959683 0.008995011225529164
0.19659192419785887 0.20225546037827283 -0.4767350228786839
0.659628340449462 0.21136402836459098 0.2750078731734024
0.037505481187477714 -0.5704888575646394 -0.1489015171126034
0.49358089660642646 0.14130551373850883 -0.40877430493680156
-0.3150828263562667 0.3610312670102736 0.46909268148129496
0.09824147201598157 0.5511819199330447 -0.4162415915795231
0.32689845022195074 0.14284782621753875 -0.4907102274596266
0.03249697015116211 -0.44920623252134056 -0.03129904643785029
0.8012670875036365 -0.6105558017064406 -0.0611407334393768
-0.4513921286572356 0.35331512802023096 -0.3492362378216095
-0.04944696141272606 0.8136828173746994 0.058284366151618645
0.6957800076600759 -0.5852706869955198 0.4102473964180709
-0.4361286126138392 0.37084291438706957 -0.1925650927661483
0.549445102171051 0.7842776231111179 0.15819143267156727
-0.2712447680224161 0.38111565369936184 0.3059244879004842
0.3543900557457863 -0.42211107453013397 0.4369466789510102
0.7642418627427707 0.08314099716565763 0.05889591364423102
0.5824720992182892 0.5084828616532548 0.3151714978823238
-0.7221377617991052 0.18232610584119396 -0.357961515985617
0.7491299464052135 -0.2658403815278333 0.0911729212033355
-0.1446950543313323 0.5820207325469409 -0.2621916912491788
-0.23835506882197582 -0.3306278029855989 -0.08042135565033554
-0.04291215597950704 0.5589787214080811 -0.3482047877475402
0.026151521331651925 0.046188997923084014 -0.433513088632339
-0.09313685248690734 -0.8133361403115346 -0.39191527349874106
-0.24188648385649048 -0.90929131714115 -0.204588379625114
-0.08404716295452376 -0.12989777889268717 -0.3858015147957023
-0.6480804473850338 0.0342463735491122 0.31267439329368674
0.7251571702799362 -0.6317980669035245 0.45429826641445814
0.5119948261594733 0.7074589057533234 0.26203437079972275
0.7470115550439942 0.3763273912922845 -0.13347381572741115
0.5461579628889641 -0.4815078392779964 -0.5515051419473812
-0.1790149394359174 -0.25715171612297194 0.2413424411385539
-0.10696503395690382 -0.7532683323374473 0.32836010021598666
0.317440916875021 0.8760835445956281 0.15642257874532076
0.7195588505767512 -0.08754482560170058 0.0811776379564474
0.674969086531682 0.7230599456700979 -0.07242490022308035
-0.29046360620231576 0.36167427859277734 -0.24681204411036578
-0.6496227598640637 -0.2241596156117949 -0.3273841413549982
-0.14199829579047654 -0.32273317679471886 0.06124027437830536
-0.4154509848117117 0.35713658475610616 -0.3237205771429405
0.04442014399683763 0.04023370381822461 -0.43557370048303107
0.11330876655332929 0.46619283654205085 -0.4624480377706377
0.38409616112359996 0.3093483529550073 -0.45069991867962955
0.14393190713288073 -0.4497920366676783 0.2246681897193089
-0.7805665767270424 -0.18915038090141187 -0.052071638584012994
-0.07106164701924937 0.012105379529863649 0.3627045845181232
0.7224861550853552 -0.6400187754805496 -0.5277039881306013
-0.42948454097754346 0.29251735316066796 0.5366472266264003
0.7881431295728409 0.47568812679684996 -0.036611328960206184
0.2911729784107718 0.9382869061617846 0.07188543410003692
0.31498671786350835 -0.39217499525893373 0.4071404605599063
-0.017788938312935515 -0.3623430335215554 -0.026717302875331608
-0.33450589508327827 0.3782878901296865 -0.322876767459495
0.7959925618891499 -0.6310446449692211 0.015650524349057993
-0.024539987854861244 -0.012401141974840752 -0.4115671719704158
0.2187397831094474 0.7207796572645293 0.33299847914030956
0.6638433843461579 -0.36501233249305143 -0.3244522602515011
-0.050564794715405745 -0.29435371186159 0.17533478506737182
0.15017152219548424 0.7400762975576145 0.2785633153311066
-0.02879793732868147 -0.6543080488860425 0.32350948170348875
0.3196903132650603 -0.4256213228132672 0.49624161446249754
-0.6993577607178847 -0.1737924725883419 -0.37153169191850577
-0.14991122836092968 0.36545225767716655 0.40647170563112817
0.10928593964215046 -0.5884153797615537 0.5779601487278926
0.24551457945812552 0.9226383840729921 -0.05307963360925436
0.49428111562509586 -0.06288842061424194 0.3548665936890473
0.6039958250013087 -0.19457364584992942 0.2782944403811274
0.6727065324313247 -0.35343583571054066 -0.2807377699797686
-0.6378786452935871 0.32730405094436615 -0.2924418393449291
0.6082726529290637 0.05789707180877618 0.299142546343029
-0.15009143178485185 -0.343873040681066 -0.05242518053951763
0.7679048548804668 -0.7740952715479674 -0.3719212745587948
0.39709483476919244 0.8965872617918113 -0.1252164943912399
0.6290687001240544 -0.5971812752052388 -0.6801738190740463
-0.10441758682444083 -0.8061325799495374 0.42664876836680504
-0.38767105380960043 -0.1615472208770529 -0.6606248939874699
-0.07177273545079017 -0.6484723183227695 0.1802111469261444
0.6763460695201929 -0.5629037236034163 0.5017958844398348
0.01459676337488419 -0.6340611930782435 0.40878917887020466
-0.13390344357301615 0.6420524998362438 0.11296037326707954
0.1295213539627163 -0.5392433000796042 0.4501026730460587
-0.261249484775528 -0.8765412040849543 -0.1606307577496769
0.4612838664446639 0.5985834294656625 -0.39108862604614525
0.23728929428620715 -0.4433790830734924 0.343192272190693
0.7261697419000708 -0.5369161015763796 0.2775930772137348
-0.07748203758013682 -0.2381216624824194 0.17404189701002473
0.7828668877352695 -0.7540326236846223 -0.11373896647329601
-0.6802029948664907 0.0878834936238022 0.2816679628918245
0.4425341292413238 -0.3473020544048439 0.37547900501394577
-0.5139078428248574 0.3958139602734402 0.04090531911881095
0.1900554025415549 -0.5035761798533145 0.3914793528351577
-0.7105618370909561 -0.16438985838013137 -0.33661341703162634
-0.16875249746213505 -0.2854087571427059 0.20240763215847377
-0.01636046863187544 -0.0006965005353185105 0.33430280868488976
0.7771593018290077 -0.45590922781688703 -0.15840538848282734
0.11402843610029502 -0.5695558042807752 -0.3949409747975501
0.41793607583875403 0.49648589021492556 0.37772496895781504
0.67224258012402 0.4714690783796223 0.2479287332643221
0.7855144478810224 -0.5550028045945581 0.13428330094915716
0.41172163204806367 0.6952125098933112 0.3355230432983062
0.7796072080225422 -0.7898479111705814 -0.20544248664706932
0.23576299988930374 0.6176632535756794 -0.4434809123098676
-0.13466144210221298 -0.33132287333501337 -0.023622380578761887
0.06586377936922519 -0.5196669154236683 0.1718176718918986
0.022079496025370487 0.7309459907455531 -0.2897937071248144
0.7289340052156021 -0.08733258601352553 -0.16186987081702808
0.7506945697843482 -0.026667532405867268 -0.11421436026783381
0.12559577969301933 0.09951490954503214 -0.4817097815276617
0.6075987493310306 -0.5959467387327809 -0.7006758200471447
-0.10554628953999202 -0.7842553122110131 0.4085311733330969
-0.03748488651045782 0.8127715029165781 -0.008383463732916796
-0.46663218965180403 -0.013714624709207379 0.6019083256556187
0.037444841305142 0.38519053937745157 -0.4574835764601698
0.6496685258129966 -0.6313066550268603 0.6681350862073157
0.7434686985222463 -0.1197508959399596 0.04361752366743147
0.5903924687554438 -0.5103117833874754 -0.5172636310303431
0.7647658828580495 -0.59249598618326 0.14134727516690984
0.6501833927384886 -0.586835882449016 0.593282016356178
-0.14151775332668387 -0.7262727152851691 -0.006671245168474465
-0.36244314653484544 0.37050939503422287 -0.21035088467009477
0.37540692364437706 0.693253727278994 -0.40235734682208407
0.5953220335298507 0.834449116702884 -0.09741940115827899
0.17798348936184832 0.5786329081772024 -0.42503380244384453
-0.004088329425588683 0.04776620693817512 -0.45090529337546476
0.22300860199613923 0.42848341084464225 -0.4599886900898701
-0.41245159893353894 0.27955586434858337 0.5312548536934122
0.40471715356392324 0.2158839878960506 0.43431628103610675
0.4819580618006214 0.5187184161320395 -0.4296538749885943
-0.0021993398833939724 -0.35339064183596974 0.12820272255909457
0.7422822162961676 -0.35214523595064023 0.07568286371272251
0.46010482118528667 0.12055809286425916 -0.42091429496554544
0.06246108106608352 -0.5851871641387177 -0.2406485149378627
0.6756109539654623 0.19627442292713876 0.2555344619025649
0.674383854459706 -0.5338680893774659 0.4061610692527479
-0.04216674308626666 0.3957218563012133 -0.414343448847542
-0.16450370117810123 -0.20458094265841237 -0.4818184756563767
-0.3633058346722256 -0.39750901660703264 0.3163602684058491
0.7361707458905754 0.5389950198066448 -0.11047928676056888
0.23455763920929035 -0.20124803742739306 -0.37956132765873707
0.25306252858584094 0.8912887090541353 0.16683776457366595
0.6640344571829514 0.5226571481120547 -0.26956572977095006
0.21524154838790882 -0.4484802701563966 0.3166022558608304
0.6536272803956695 -0.6131198389953917 0.6295807066777384
0.5972115951464069 -0.43677219627070446 0.4437063096083608
-0.81089166656417 0.09923402103345806 -0.07694199938273179
0.5673315791626492 0.4896215699493916 -0.3678595465910232
-0.070343121621007 -0.7796798614664726 0.4567993755236268
0.14148857753423943 -0.5112110842840017 0.3868896002315757
0.7630508039217987 -0.44581440363107044 0.1723245297763275
-0.5211028220714298 -0.3549146479354266 0.3713829525844746
0.18229807419747274 0.3828124262560393 0.45441897410476806
0.24970902867780187 0.49296591666764417 0.4186574616088047
0.006616898104117109 -0.36933835881590904 -0.15828296456943258
0.12818727655132992 0.5598276797607815 -0.4211579986436118
-0.20000434776514855 -0.2776268296010725 0.035986051682914015
0.355741867462384 0.8475038536359188 0.22974420553030006
-0.34795765162330383 0.3775945360033569 0.006742754463681672
0.7393268801438425 0.27083630692819244 0.19979782892059011
0.14126146401266124 0.844086281399374 -0.2767807316201804
-0.6812435981303466 0.04632286332371202 0.2807160311540256
-0.09043723357424327 -0.18429118127348904 -0.27445524934004073
0.5769750366771177 0.486270358338799 -0.36281442279556153
0.4427406480858822 0.9187459901162714 0.03959984542550751
0.6675561469533181 -0.43639462719201016 0.321520379148004
-0.015371352060568878 0.6420570764311372 -0.32605807298467504
-0.06322537241325844 -0.6857114988948955 0.29905101444516374
0.6140500319074478 0.5761684118271798 -0.3057843296818781
-0.26608694557770785 -0.18784662343119338 0.5253361723476989
-0.24959060928493848 0.5830882233057948 -0.01042004846041919
0.6920289160706845 -0.5621657476768775 0.46313624322771235
-0.22806345105574888 -0.889415737594067 -0.27311373496195285
0.4212838550031765 0.8590420214361986 0.1938207959899876
-0.24368394150081982 0.5352559417788482 -0.0866100560947515
0.20944929547612184 -0.5257143135007548 -0.3737879532008848
0.28416678370354664 -0.022094942033135122 0.40190426392765094
0.48285679062278597 -0.2307893853890492 -0.3784743863715869
0.4038252896340985 -0.27336487560672057 0.36622627428848975
0.7611909901720486 -0.30338276151163784 -0.101649318988378
0.11940936754604994 -0.14992324192252454 -0.4065912691727147
0.6448636732494312 0.14411039433371794 0.3096303856153046
0.19488885882320306 -0.22918014020970534 -0.3604860801436136
0.202902476481308 -0.5416277060189947 -0.512162443947439
0.7419298184893863 0.07273725282454568 -0.08514325743146045
0.5399257847930622 0.8481348516568277 -0.1676312317132855
0.257397708098485 0.43678935850155437 -0.4589766905440971
-0.25956987444970014 0.34751200569557256 -0.4481564760676982
-0.12817640713845815 0.6982759680999895 -0.03761875191108595
0.7686754390456201 -0.7032936323260917 0.1920439330226779
-0.6665269851766952 0.06912975189993055 0.32619708705455785
-0.09851606770957717 0.3880543436319113 0.35291353181834695
0.7817313201273782 -0.7189330012250973 -0.163341818149574
0.11551868981241402 0.8997948827376278 -0.14036502348794314
0.11286826929485269 -0.4623811050703237 -0.22334555379515564
0.3190495899800032 0.4223805215544748 0.4105837761427257
0.14203891307015448 0.8247873528088422 -0.26327920461069054
0.48748258391115235 0.5000510576367779 0.383863326858405
0.035575874365605324 0.671188819149846 0.3071761866037919
0.3824159787234104 -0.253575679288248 -0.3669905656356648
0.4473332610612724 0.22632491707067043 -0.4585316166907272
-0.1457453828593363 -0.7328401289570027 -0.0008870012977506954
0.6840376093126843 -0.583857091247863 -0.5450630125607507
-0.052881123805758865 -0.6305669628772366 -0.02379514703598261
0.3649871612211387 -0.2989840817448497 0.366955097025242
-0.48583157730340737 0.36400376539344853 -0.24683035048993884
0.3856905323695408 0.7911305018894187 -0.341063011416602
0.09596862057711444 0.45258547577565433 0.43662574523412007
0.7435138923968172 -0.07183509155621097 0.09165746818765982
0.16305177644821345 0.11221438829947757 0.4100094134836211
-0.09365744015601607 -0.25681533639831705 -0.21069985003070613
-0.6414764209540541 -0.4535396958108997 0.004525966312257107
0.7299557300255233 -0.4109264486853588 0.1815206251399795
0.6099539794779766 0.3328194198651106 -0.3559432376376876
0.678153824503032 0.28984404966864025 -0.32559984142098697
0.2248529697381245 -0.06867609693113562 -0.42604236954344754
0.5868759276543324 0.48891334188965885 -0.3834840415566258
0.24710895070406635 0.5177470338659441 0.38882378364834136
0.16338987239595332 -0.33651158779525114 -0.30956974573296886
0.6955031236690336 0.2377692646756381 -0.2669936834409358
-0.2316234698083464 -0.19141522329921581 0.5340208332320284
-0.561403744627149 0.35136034992644555 0.26585010679198157
-0.36446314110585976 0.3332673540902889 -0.4323735165039163
0.14296166901550872 0.9078502618241336 -0.04690409087515647
0.7323864739882081 -0.45831422843329717 0.2720285098978876
-0.783509327243411 -0.18296339668008085 0.009174642575089724
0.07190545670269509 0.14213444948855125 -0.48389110106866356
0.2747412865208699 -0.49093162023758824 -0.4724152893738046
-0.6937680221301246 -0.18054867079952253 -0.3259310724763869
0.669812408235697 -0.2759191876315234 -0.25271871189448436
-0.2247105232220714 -0.8018837836655036 0.049985283387046386
0.23023847777877268 -0.24355694099253192 -0.38623857960800895
0.34849540152326247 0.2481901712475999 0.45336178068442395
-0.10236670023789703 0.6190596870924866 0.24329264263744596
0.1642148036254642 0.8348295461533863 -0.2590092415752754
0.43522015852752655 -0.11674979383870195 -0.42167915838708214
0.5593763130894335 0.09456932668849895 0.36635041442496946
0.5525142811213459 0.16191220431979064 -0.3868798749674276
0.3722084558883471 0.5190696697900973 -0.4352356045352912
0.01808813320408279 0.48638076869059915 0.3728600485862756
0.6815754012601085 0.13936332128068 0.23065380376533623
0.4804306232549945 0.3683784180370471 0.405476868316205
0.015306707657701637 -0.682968974405107 -0.393562847660316
0.15109885473573176 -0.398219532964212 0.2402263240589592
-0.1340498946096006 -0.16489671626456032 0.5033565032984378
-0.23395524490646438 0.38528264334967843 0.2799420145427024
0.6735102969094543 0.5985668393091746 0.18248285421628818
-0.11282650786645142 -0.1599534217054738 0.444279528118742
0.396983280268669 0.40842877202236005 0.39725272729301
0.10620474713026054 -0.5811277244683929 0.5181984005372924
-0.3651336122577229 0.3994758082624128 -0.06618757345792352
0.12955281805260746 0.8341230343167388 -0.28488530910178894
-0.7325678215608534 0.05041719953009819 -0.3245586660827695
-0.08695959352972447 -0.723730416821961 0.22492676733077827
-0.7821449298908568 0.1635614947044507 -0.08281548685387423
0.6467984287405585 -0.2722573396425508 -0.2764146040287193
0.08975474886078556 -0.572628987751602 0.33911452614079496
0.20261701137484064 -0.25788225508280915 -0.37405568400214073
0.5853055835315812 0.21362829868803343 0.36415765339673445
-0.47923670406221425 0.20085330611784902 0.5058044094919724
0.5993763245309206 0.20638183274891186 0.32612042909009575
0.07344147636374677 -0.6594590064384108 -0.540994991775001
0.2434385215996688 0.5854617598323136 0.39367440216083927
0.49958882155255835 0.4213250443572159 -0.41077198860771125
-0.2192660915221725 -0.1953545273535926 0.5090618009072528
-0.2052302470588941 -0.3357209810274398 0.017480590232001953
0.18916983142970828 0.3669957143049198 -0.4903406674219956
0.4576929556765366 -0.02722244453667558 -0.4327911307879267
0.72721148931265 -0.3997967419793029 0.2487353581142598
0.25058315830241523 -0.5145811743485289 -0.4189286248562306
0.05417515601182945 -0.22294853418816502 -0.3505880495382073
0.29245442498088564 0.5825647752648777 0.3946646628808693
0.5095474920403005 0.15819658134082226 0.39318127406109016
-0.033574758248525606 -0.5834881032845936 -0.03208107209023668
-0.36650487450261704 -0.16648250639507622 -0.6334525059574394
0.28376404335293937 -0.05794512605515543 -0.4530099549520044
0.07160168521665466 0.8331133230684123 0.1820915553529142
-0.22690214010158322 0.3804165788294159 0.44319773550084696
-0.2853910228374945 -0.9197454040260878 -0.08359579628317565
-0.05962073186045149 -0.058716282294670324 0.3682439805620574
0.33260832442565885 0.9624427460827925 -0.024347770869344226
-0.07549751161954533 0.7512552026587729 -0.1945421817600383
0.37218843328568907 -0.09580100278914848 -0.413570576384942
0.7688567866182656 -0.4734044059451112 0.17506877048920078
0.5304762604871958 0.5794761457862863 0.3467620162074388
0.19606046711587863 -0.4143869264990279 -0.2729438288765404
0.0340821882073164 0.7192585115368808 0.2736606380516978
-0.0964880640974997 -0.13209626066453878 -0.39582482968631166
0.513407277758407 -0.2231865171226147 -0.3706913146812302
0.06879566047272234 -0.3479067370051163 -0.1994156832470026
0.7522042740247635 0.6104642698085755 0.008449824358869124
0.7297326210244768 0.1998161353001632 -0.20574454191002473
0.6558017350443316 -0.05228959891580466 0.2738785983834895
-0.09758930724369128 -0.6504900245963372 -0.1094192329684166
0.09851663978393904 0.8168435282228597 0.21899836072091672
0.5183173920045172 0.1806573649282376 0.3667148257933456
0.21290805706670596 -0.48554039145332345 0.4685812470019729
0.007230733894176047 -0.1832763213559078 0.26874308683888587
-0.009740424118769409 -0.718794559229576 0.4791835011465802
0.6383517507906784 0.33606022112390305 -0.3323846433502506
-0.20017425385056098 0.33611857270879214 -0.40912727481794453
-0.7220302118191135 -0.10280033260403379 -0.39635743091701525
0.7479440362534967 0.5612407034340766 -0.13910417159484895
0.09644859096654551 0.8242061252573978 0.16937663059070399
-0.020620706403142366 0.6430496254486135 0.29295212967552803
0.7528026638070578 -0.7225107542829062 -0.41330742217857935
0.07335166068896637 0.8380034147118649 0.12936574973634518
0.43896324107585455 -0.4717511110399197 -0.5657761089733011
-0.04794812658518225 -0.6839237665147142 0.346974255795614
0.7603368831500932 -0.47086668407679644 -0.13263973130811385
-0.12806885715846655 -0.6861485637072021 0.09299955464010941
0.2834116455461581 -0.06187985351463895 -0.45191386047506776
0.6692815232280787 0.42489822082013157 -0.2893383359329346
0.23638141227425596 0.3344858724806202 -0.5142093260134513
0.7403537536230186 -0.23149360892825016 0.1056189429839227
-0.46221749180288946 0.09555501081363571 0.6223519750438281
0.35102282605306756 -0.4559898903018808 -0.41288809167148405
0.746762702696673 0.469669904512208 0.0788126825453533
-0.16534465048973848 0.3749904535090899 -0.3658704440355385
0.28514445878762007 -0.22702628023806307 -0.4001434190424677
0.37569524912265256 0.359082209660105 -0.4753837832364478
0.7150263054093351 0.3698063156437453 0.24396311378930907
0.6538406641325681 -0.48571659035671416 0.3936475146658414
0.2957352714449942 0.5075252091718394 -0.4474762796516868
-0.3736346372719604 -0.4534189881205899 0.015539541922896333
0.19715198499792205 0.5271931257256407 -0.46441196905420956
-0.024266536309988745 0.5635804875732578 0.30703888875699403
-0.02807826778171575 -0.6465673106984484 -0.20309755383863332
0.2605961758545148 -0.5139009779325175 0.5619243322962579
0.37800471332066576 0.9125315463255808 0.036822424399658014
0.4926089422659696 0.36423717173300485 0.4022515130651773
0.769941439607969 0.6604801591739704 -0.01680268211343726
0.3023719061145883 0.6683616276545324 -0.4229600328828344
0.58384564976063 0.4338780720750767 -0.392927273044514
-0.11927435799669846 -0.2394397218116794 0.16575311158396236
0.8025925837995981 -0.8033156857927335 0.01797371833175108
-0.6053739521385427 0.38676660424381937 -0.07443516952994647
0.4800278829043874 -0.4567764925491605 0.4931135118529517
-0.10457605142262014 -0.29330338333358597 0.12040248863788804
0.7860476211860878 -0.6599418371996504 -0.2973559581115711
-0.7834578405508618 -0.2716457921499384 0.0015792112753568064
-0.1868775294625446 0.5597407244578096 0.17371924707004963
-0.33497785643164607 0.38085936438533907 0.09682501589651635
-0.15176532136706308 -0.8491920450771715 0.333392638375492
-0.1023964481047032 0.8152794769180869 -0.014228919560338015
0.0432021976808679 0.7225914167679001 -0.34228152980693355
-0.18326659609175952 0.475462157423995 0.22694104115817604
0.22547252627180003 0.6538572542890561 0.3680872321869631
0.2945407801778523 0.6820033128826284 0.3568757188471901
-0.32842474461885396 -0.38343141071535325 -0.011786162036058466
-0.647367642730408 -0.05423922834033508 0.32196488092701225
0.20713925920374696 -0.5396763603713792 -0.41443669696849217
0.3408101545487494 0.8795119862450441 -0.20542418026749626
0.11626009818512274 -0.6112348539737287 -0.5170056254932355
-0.09453671844988433 0.628072718660408 -0.2554292002200198
-0.04213699521946048 -0.5856362425126193 0.007370892112782153
0.5413771374485886 0.7915069268193896 -0.25980785738414996
0.12421593633270026 -0.6011823632906748 -0.43213610564382826
-0.7222395910354803 0.33007918367276895 0.013362798976787833
0.5878696208205322 -0.35693121006027095 0.3806116561867411
0.21298414295680645 0.7222161359866524 -0.3669167680430109
-0.005927548498319053 -0.6364473152407188 0.24992584486087005
-0.8018157068164663 -0.19068754471118676 -0.06415156080478274
0.16868956928235287 0.855496876617004 -0.2261813264058942
-0.050650033795292884 -0.5998917635307743 -0.10026489903316578
-0.3243961969640585 -0.4204337525017527 0.31926297371690165
0.2942198464609623 -0.5506681971562756 -0.6175288161006897
0.7349653852105622 0.4052303042663304 -0.22517390345501456
-0.6341212608862176 0.36972908560492157 -0.07987674085803724
-0.11224756861245354 -0.71163276029598 -0.22268537998180232
-0.34190682110004744 -0.3542687759811148 -0.27147703021324937
0.7584204340385392 -0.4341200595300581 0.1779125521410026
0.4717545434860898 0.14968869143424487 0.38234675772564974
0.5929856818368394 -0.17659163243993428 0.2897811214888579
0.0011776150734730466 -0.5763331692433373 0.010827937480281305
0.6371687010107698 0.7498473276547326 0.06623047903504789
-0.6061468246011426 -0.285293198121651 -0.36096719468176797
0.411309166433308 0.8881382955444848 0.15215204363554408
0.7169284526618478 -0.2276727242667365 -0.12630343567839009
-0.04313926950108524 -0.2455666382250363 -0.2640103156448894
-0.5066087460444633 0.36264508878451074 -0.25387773455120344
0.7236508984856908 -0.19862622062791457 -0.025543978359571087
0.7692595269688727 -0.6319925721864882 -0.2201894195418886
0.6124791157103349 -0.0779465619618031 0.3158780097189713
0.7031786453793986 -0.14854111026475889 0.10838435044817736
-0.028606864491887804 -0.12945041674187058 0.27866342834439684
0.75200633629563 -0.41294186666147986 -0.2135258973772965
-0.257166590056375 -0.2564995513506819 -0.5281095888530166
-0.47099482873380777 0.03719598895782068 -0.6211609162228563
0.14321910247825484 0.9074892829019273 -0.14442389108390644
-0.1286632424202292 -0.13118551828077926 0.49187668708304727
0.20506835001454513 0.6235373131211834 0.377172917198815
0.6687083047176973 -0.10121397039915628 -0.2719083742819394
0.6879797737388694 0.5758406132179498 -0.2551992263266333
-0.03227672152192362 -0.2671040937927358 0.18104351512235675
-0.2494344329842059 -0.881840328896992 0.06510806913747494
0.5492168445007494 -0.5165662723834821 -0.5700249052573348
0.7108495904948702 -0.747053316472395 0.5631508597276526
0.7718830599914362 -0.374717574038579 -0.10994954590167362
0.007630613872974975 -0.38895421660279933 -0.001633558339714289
-0.2830689730035248 -0.9307000559774763 -0.18526141939086097
0.6881902971039595 -0.4893870194611117 0.3891681724140595
0.09558475868044189 -0.533443038126754 -0.181989726116539
-0.0653700791951142 -0.6998606140817821 -0.2358602525307855
0.5104879822908662 0.7769390531997693 0.20232696967348004
0.6519030482696325 -0.6394884625472927 0.6049883740187851
0.13627240350464204 -0.47810742927230143 0.27800783112593674
0.1279927712683662 -0.31784766174615975 0.2768184885280498
0.4619411798862088 -0.43562232680377194 0.45143274593691346
0.35521727527274377 -0.19903124927596838 0.37140697970766434
-0.38220659950704344 -0.4225218239218044 0.33528792073566477
0.19969599968421511 0.9025957588123052 -0.11491572343522645
0.8012264702239587 -0.8184213093123123 0.18560580815657912
0.45193674344953405 0.6823911792998326 0.303747172880014
0.3477677229352337 0.41389093802747046 -0.4548508902478198
0.6740034250092035 0.22633063781428703 -0.33102768296439783
0.34638673542619114 0.47405256619686986 -0.44694367842098326
-0.25320154265572353 0.5903209594602364 -0.01870254106850334
0.18833231456424107 -0.14492045162982553 0.3874164807186627
0.786222675940755 0.2512765124287447 0.02451653280603329
0.47883281956288376 -0.5025390090356285 0.676051451223939
0.41120848134565635 -0.27483224634437337 0.3955141933079314
0.0419831072161747 -0.5429514860918712 -0.04033896550076953
0.7214135156572464 -0.41209977320111935 -0.22891584185461933
0.37915229449015175 0.303268918713668 -0.4529533195902003
0.6124573768845919 0.8866806500709803 -0.036552977375317174
-0.02103374409225949 0.7947814804655198 0.14164589798369526
0.4536541106832315 -0.4295514736778575 -0.4438476119756903
0.7179845019334684 -0.40659698991633125 -0.2867039334974997
0.6013419720375773 0.7335397759013104 0.20674166752239462
0.3135748383389365 0.7954010369991956 0.28524228350346353
-0.3366792055832169 0.40447287781149527 0.2668254935786083
-0.10132952942021108 0.3642583384843864 0.4162290059435666
0.7610222282353595 -0.010388584370527922 -0.0008698390669009707
0.7990588804676367 -0.8167531404737177 0.17508879309185882
0.630349002545445 0.0890808452627524 -0.34876542062196497
-0.3081121002594643 -0.19875264906184098 -0.6208428428777745
0.09455788520126583 0.12847274165779712 -0.46055962030280473
-0.2931077339018989 -0.3928900882110062 0.25855615868084236
-0.02768696891834175 0.8051960942195032 -0.0821312859173313
-0.28748939159605597 -0.8760938419341376 0.019424498912915634
-0.129357740695282 0.6479488702818526 -0.17093152870569037
-0.7161304089273348 0.3371849193189225 -0.054424008359150525
0.3800527395354015 0.7328784579392338 -0.3532853801534247
0.5563820758805155 -0.4190756479671767 -0.4091135450332647
0.5395842563991524 -0.21669747763832825 -0.3595478781904945
0.40662502156005276 0.9074023275989553 -0.07651008323967998
0.729034690303254 -0.34825455821700435 0.14102576937565808
0.09572777727085643 0.10843698128944988 0.42172263603856813
0.013985787956633433 0.7942952172581106 0.1833363891638819
-0.34169229321442574 -0.9536396658055996 0.04892065300000083
0.5941801731039813 -0.010533891258389034 -0.33252937816375006
0.7571338387991704 -0.3820630088422674 0.15892425992885117
0.275627429707078 0.9898050628008935 -0.02680654647575015
0.43786428622710966 0.6010153175770706 0.3693784040212251
0.009516743043361376 0.7800150970424043 -0.2674942485073865
0.45049626020687944 0.8575311730470598 0.1317444349321191
0.7954370776839799 0.37219072158313565 0.00020508865865434287
0.2303397349407862 -0.3256896570957673 0.3532012852222609
0.6211494747356233 -0.2554492228226778 0.2821181854144493
-0.0640445828991526 0.6300892807852522 -0.2899453068306537
0.6932554435020791 -0.0626412844900057 0.1760418689783811
-0.455798817465087 0.3699075728057589 0.21372898377568508
0.1016212873446569 0.7620422368221956 -0.3111801350610361
0.5474291121205682 0.049080261746903484 0.341794122450801
0.2853635632681351 0.37928673196514123 -0.5180004628081586
0.720907229847179 0.05785473830601354 0.13447151341414265
0.7815940222805804 0.29700642067659805 0.05828379407725691
-0.7744064800007093 -0.21582735253424654 -0.03642597686702901
-0.3783279353350024 -0.42681295370860084 0.3172858847230116
0.6347396732711699 0.24964095182876458 0.3319727498098568
0.21659049973269837 -0.33220386785196654 -0.33338062481389713
0.7490241126483069 0.027694405885043454 0.11355132608267214
-0.606166275129439 0.29871749509231715 0.2835792633341238
0.6498058236597944 0.7897935641062241 0.009448666194323963
0.51760058282936 -0.44090371731059835 0.5008788492380971
0.4934893647085611 -0.49592983393539397 0.5854142776602961
0.7926968414916383 -0.516133212091707 -0.05445375622595683
0.5155834486301537 -0.48801003647260094 0.5510228832605036
0.13163345250595757 -0.5250478468694232 -0.3084467637610343
0.21441089641478142 -0.5839474789970048 -0.5616972187746797
0.6862721317693202 0.5486436259903681 0.23633965084585493
0.3119953410263988 -0.4263055237498101 -0.3823124332639503
0.09107624063621537 0.15139461718070885 0.40306157036128504
0.6025564859073772 -0.6173571937921923 0.6612730542392284
-0.013001247980219885 -0.6915872746634845 0.5314384895635045
0.25151220706574784 0.28453119507192265 0.4523143125282284
0.5642337964942712 -0.48362966308538585 -0.48196263839551456
0.5572241693408762 0.5862380647410835 0.33153911744372005
0.6596849758112661 0.11123957358721229 0.28494137238923145
0.15916853568127923 -0.001975658807985814 -0.46240513219351337
0.4981077210302259 0.7952191173521883 0.18972188318870817
0.6994235492694756 0.046663247568898586 0.22978367866125451
-0.10984027969859679 -0.7019584107659819 0.09710247196192051
-0.15830870791570703 0.3793673944501351 0.45494585459185505
-0.40297175468650465 0.3874570979983405 0.36345915060115014
0.40560958956810966 0.06198282689973742 0.4005404386494583
0.5317714368419896 -0.28115996085867223 0.38092458086256803
0.09516371195026171 0.3512276286745409 0.4224680489318085
0.7144633842374637 -0.09003392114927443 0.17875292937827814
0.6588240038969707 0.36481839928444953 -0.3092705508418218
0.6364021213661482 -0.6286979959377 -0.7029292209577155
0.36350548862444454 -0.24200776362116203 0.38639075138821
-0.018889037310403742 0.623790742063398 0.2754809786704935
0.37940572343236634 0.4244880435028229 0.4217134828487816
0.6859403286395587 -0.52438080816373 0.3718303147352912
0.1332123777441335 -0.554531415320552 0.41124681032788735
0.11101703666052748 -0.2142467110729855 0.33214265589526926
0.10777337502992672 0.20517246754836682 -0.4955631342695712
-0.7058050387737701 -0.12863635492523132 -0.3347770583307042
0.38258073613956806 0.526911665139705 -0.4554223925351161
-0.2125053167160986 -0.8222456264199959 0.043269130381181714
0.7144101813218294 0.18295710386210276 -0.280185146146407
0.11584992086781405 0.07108853451424738 -0.4522748393972739
0.7460676323472584 -0.5856425353305976 0.33063981654719377
0.10440500118848463 -0.6019495150096581 0.49008723847978103
-0.3952796428196515 -0.39950441198049574 0.3240878488831249
0.2898040044633243 0.8192027628903372 0.2634353809114232
0.061843240755492926 -0.47505255218104786 0.00488008034212335
0.11012517273070264 -0.5241170818830057 -0.19629330138107332
0.7140017202276058 0.652638163824363 -0.07002905279645683
0.26720935547528096 0.12543445472303172 0.44360848489251736
-0.07322980884993308 0.6729799839761973 -0.24425429963939296
0.5250146665564471 0.2427508882169557 0.39545984624357394
0.5753657914977737 0.39490665033585054 0.341305570945945
0.43814803511049205 0.11202331546268376 0.38726202064101506
0.1774245727105085 0.608425968857988 -0.44011597091459537
-0.6352568284941086 0.14958228560297634 0.3239002084925012
0.5342868478101996 0.7815619861163275 0.1778164436482441
-0.08606601337681469 -0.37438005016520076 0.004037986881762858
0.19569319537569418 -0.34123577787382275 0.3302633916172228
-0.09934671968270456 -0.8067435553677881 -0.3668309568887622
0.5978740572572069 -0.40316969241563844 0.36741904933254654
-0.2286709940278296 0.5523260686563605 0.06329630963410404
-0.5501950916591843 0.3700385778345786 -0.024689299263254014
0.7839532569480578 -0.45924556549407636 -0.12118737466208286
0.2945487892189156 0.6018682804503027 -0.44820853483460904
0.09819456191832568 0.909555615496236 0.04636748512392135
-0.429558910644559 -0.32670337286462514 -0.3734967673508009
0.03531786882849759 -0.57923587455439 0.18840153556200157
-0.26665787579064243 0.3559809945455571 0.4486341581596827
0.0499194948354558 0.03233621725553623 -0.45831994917691377
0.7210668385940818 -0.34871679430122404 0.17168037404510067
0.755852964303418 0.3255168906385466 -0.10874532937038356
-0.04932110505316137 0.7880933591033765 -0.06984713314944957
0.26275518449541196 0.5639569125032288 -0.4612066364058399
0.7866814795788047 0.22615386683653466 -0.04510663323082712
0.32392137524388265 0.21732103869253558 -0.49797557185268293
0.5781706720929828 0.13444119347297487 -0.3879227665287301
0.5100434805118579 0.8112091678348903 -0.2634628404807828
-0.09363970585080461 -0.6746550177071317 0.18165449054060737
0.0479160904209295 -0.6446159650508332 0.5778737654992824
-0.12604829051309052 -0.3286747411148986 -0.11309767111387747
-0.29374159229461594 -0.33606823016496623 -0.3071304206548593
0.7763366588969435 -0.7534960179333872 -0.4357430344940818
0.2589154213799636 0.7126922420137703 -0.37567694274307945
0.7154879694191931 -0.6164041179056702 0.38016772648209457
0.7431088637487634 0.5924668103908156 -0.12866724694076084
-0.5372650669369908 0.36876113578499614 -0.31093528723424646
-0.3129169528230296 0.3715831786110551 -0.12507004335465546
0.19675496539093143 0.3787775857832656 0.431689887641735
-0.03435449560346542 0.7553638407242006 -0.25142925628330726
-0.7272932959463668 0.09719915252904063 -0.32811067579430386
-0.47729165123257705 0.36889156873945433 -0.20215477529062092
0.07290715890995823 0.02113671747735809 -0.4582718949305345
0.6572136145689035 -0.6839169016223744 0.6773082985965013
0.7559187528550088 0.1716677884091442 -0.09953207177588186
0.14068252475866336 0.5762662365430233 0.3602297908295908
0.29959276886565384 -0.506343303540654 -0.4757413297124841
0.45077600456973016 0.7805785902886374 -0.32823596007950695
0.05083195344230027 -0.6547725732677089 0.5744819366090121
0.5451047739891519 0.42897367857258306 0.35191755035470046
0.2513886390036297 0.1952366800350912 -0.4764518460696633
0.7337056774661913 0.4963085471628117 0.11650666223499724
0.7446551807483248 0.23705531587228898 -0.2266675896133035
0.789096205459363 -0.5956727151135467 0.13717456477297663
0.5186634969933204 -0.49343101312367194 -0.5372295983265681
0.7235771008930367 0.5423113348811759 0.11773032929458371
0.06851591610987161 -0.34552233106572594 0.2076243782624329
0.6527548669941412 0.7513261398796184 0.0033137407399038686
0.7556252787074783 0.36362676838911584 -0.10187013969197797
0.42510416759032865 0.45809455187842063 -0.4336246431328623
0.15752839848640574 -0.5739378938910753 -0.4126123518291649
0.5481825340548719 -0.14440958922486496 0.3494198736917017
0.15054394260492357 0.014121941654708009 -0.4654056622204094
0.13618830857347838 -0.08460951205203351 0.39042273148917533
0.6829060462253247 0.4724513300585892 -0.25828041883852315
-0.23378705504413694 0.5415172956671948 -0.10484034977770623
0.10125344353011086 -0.5264540056503785 0.2045929562200072
0.10671389331213618 0.28915470006284233 -0.4997535789687159
0.80728244941647 -0.8171284212549653 -0.030408326656748804
0.4217003251384635 0.925231597154388 -0.08607917108713288
0.06528026352033404 -0.46026900652708247 -0.02421333339435461
0.45404140502607376 0.4710274369724224 -0.447797213368577
-0.0273191251037957 -0.7455853736603807 -0.5144015429989683
-0.49902876075249514 -0.3448032335931218 0.3702073397712675
-0.04809629384485167 -0.22260471749680852 -0.2828389991101384
0.1943728477489876 -0.3166800579740159 0.29045159264072096
0.7031746408588669 -0.2721269066880927 -0.24319424584724075
0.7770734906747591 0.1560186942459903 0.06903936415078853
0.44385905346292365 0.6010067364616457 -0.3961205921312888
-0.18546622201233437 0.5293767335640892 0.16124287731665088
0.2777910149428685 0.39823040237708357 -0.5074897405614166
-0.14084384972865072 -0.30303207992794157 -0.11863420678600327
0.7557551395875746 0.5378560197525836 -0.031397443228055495
0.042544312164961115 -0.36601403470031457 0.07008626023262261
0.2849728364791227 0.8600139757766555 0.17609850434018515
0.5623579646623947 0.7226120114449198 0.24996417384310116
0.1447105003390972 0.5055629941113527 -0.4613096097909383
0.40635042586645687 0.23753986285661344 0.4011680042241971
-0.07802550822371189 -0.6262872745776732 0.06025115780699867
0.7809058168235059 -0.5337359401999229 0.14929167182725414
0.5248293144632699 0.8405176815313518 0.14640670082141302
-0.7040596398963516 0.21237717205908735 -0.37272561111128594
0.7432330038852433 -0.5307336939499419 -0.3471802025658108
-0.6942336906605141 0.3624357095681441 -0.022509123870975468
-0.0014842469313215195 -0.6512291446715993 -0.3534449889003272
-0.3474427846978117 0.40430983661842285 0.1265797475950709
-0.740167257381118 -0.03049070536482751 -0.38829461486380773
0.6626517534508242 -0.002690179685696656 0.27185860381247523
-0.5848799602065073 0.39004687863356613 0.09529586112780462
-0.03790936568680805 -0.32461758974202015 0.09846629724011309
0.7675633264865568 -0.7403709158538682 0.3722891183733409
0.48860613795744867 -0.16111187228783116 -0.36804947527909365
0.682271615758246 -0.022514844614592085 -0.2701149211581417
0.33113237257258127 -0.4057039818377832 0.4602615695603809
0.5283086707308737 0.6087331727901983 0.33659625480077654
0.3211245036897369 -0.1088723298786716 0.41096191729578163
0.7860968195811902 -0.8413780813712852 -0.039100996582141764
0.6797504840464196 0.32918217107368913 -0.322067282237749
0.186977642475835 0.21959789465193424 0.4243107004507088
0.6584412861490216 0.697953890234376 0.10843926958689658
0.5172430363533235 -0.3200673102693926 0.3893031819634107
-0.47716465072428904 0.09763278489517739 -0.5977676514259382
0.5027804244162482 0.8760492201339284 -0.15395693824657491
-0.40590878445925666 0.23070872290405545 -0.588077283813814
0.7830179153667469 -0.5015310140103872 0.11321723465546393
0.8005931839056034 -0.7437507311825435 0.07883785381726634
0.43785856548349306 0.5292565979481411 -0.4419603386565807
0.7787651145621816 -0.8230900081778031 -0.01114257837919322
0.7697114657145827 0.3344475434983894 0.11121268609221441
0.35452906981566934 0.5976824123460512 -0.44252154360536716
0.760140089569683 -0.7977780059718843 0.3340385103298038
0.09954179704003013 -0.47237638831721185 0.19657819441317906
0.04711060971971515 0.00409576639229026 0.3638475890927158
0.7862455589152214 -0.7243110722990439 -0.3687983206185039
-0.015405676522268328 -0.5662772461141135 -0.032174320211187005
-0.8130666932871936 -0.10230033961194482 -0.07000559774762888
0.5655873244339539 0.8350480785595398 0.10095653693641028
0.6340617651526053 0.17915967424941703 -0.33707679726456924
0.4976883905231307 0.6825685223519464 0.3140565249514524
0.0601825088835999 -0.5128969874278079 -0.018350715336083668
-0.03251413238201171 -0.22218653113843653 -0.31026138363621336
0.7282858449638437 0.41099566968311946 0.21668374785364858
0.0818469649595873 -0.3537510486838142 0.20615586337605676
0.3424033816459668 0.23475271656661567 0.4535534255955795
0.6988686371386673 -0.6062480817631561 0.5016774650469715
-0.2988141756594372 0.38827402018678797 -0.20597852032394284
0.005656385250893378 -0.3559020482836482 0.0575538271917813
0.5156412281406814 0.430284873009503 -0.4279817016294681
-0.3647840748227498 0.33990799328041454 0.5054148268516832
-0.16813980582079932 0.4774197958895886 0.2488303224582951
0.2743190956419662 0.1100525192867721 0.4192987569682233
-0.4681230154382847 -0.34894505197152564 -0.33514661836833526
0.18885061393590322 0.7257246680467008 0.32502948328241393
0.5429463374226162 0.8910507261196856 -0.05764535908964667
0.09352014230921828 -0.15336083676172726 0.3247491668452016
0.5826019600983855 -0.14199772371611494 0.330901826604833
0.5707194035323877 0.6031646009538197 -0.3594883824568821
0.07536021377274754 -0.5596909539883452 0.24509639309975353
0.046687274692088276 0.8817144725374273 -0.0933902814291218
0.6962496807109971 0.3614431605506675 0.27128652945081716
0.3580318811321009 -0.5187538847424622 -0.5885275063364387
0.039069532492250626 -0.6332042256844799 0.38144745682912345
-0.6834043229943287 0.3433392953016391 -0.0019859561464956998
0.588112180349875 -0.43933966600582547 0.4118663668615629
0.24929370269123816 -0.49563292734169345 -0.36514104922442453
-0.11488540349405854 -0.32709066720746766 -0.07906325111575958
0.29068785935208585 -0.3341426278636255 -0.3366099845854564
-0.019195669168252466 0.08852936557811414 0.38326836952228077
0.10277058473722774 -0.4323243181088137 0.1570387028328264
0.6619772777784294 0.6989967817956787 0.09859158152531616
0.7440991244687933 0.1753754023470495 -0.2305811503214057
0.31735739401821894 0.7471574340062168 0.2915945972153137
-0.29336516736464496 -0.17216434895506325 0.5761317990680337
-0.6530986836854975 -0.052832497485018004 0.3031053054462337
-0.1529621009316517 -0.8083402149111756 0.31041126711896777
0.07876462829897417 0.31624642560787924 -0.5013159140504039
-0.25801154388854386 -0.9020231123762854 -0.15983156986644065
0.37217184312920126 0.9137449160466573 -0.16836977971418596
0.37879245971666886 -0.1815560937504023 0.3723222986863171
-0.17511682473558005 -0.7354201843280801 -0.06826877998563524
-0.0537838571484552 -0.6295526750340171 0.1827763283638187
0.40765761578284543 0.2658838591793194 -0.46909325355565673
0.15438198949728696 -0.49751390784282484 -0.28796478539059384
0.7733521469521738 -0.3823805101129876 -0.012065906398909193
-0.04154375410642119 0.8543315611423067 -0.04352427554648114
-0.23049934368768846 0.35832993187452483 0.43509373009360003
0.7951630540647457 -0.8069546508072398 0.15043524847620848
0.7456666082197363 -0.2275033902556858 0.05818940180758336
-0.28463474053138266 0.442928288476506 -0.0033383399374551704
0.7575640387191371 -0.5244265741126627 -0.29284171932372804
-0.3309464484050423 0.38899254558503044 -0.2387932777830059
0.13352301412251388 -0.3322467734290909 0.2363499481843647
-0.6868058771487471 -0.4276441777560898 0.022445051542469837
-0.29978441377680914 0.38226209072012435 0.4231573985376063
0.3959363841868349 0.5951916005753926 0.35621039636458185
0.7803303100156779 0.6206191618023662 -0.03835558368890139
0.25003911558447856 0.5079903056278674 -0.4478281053841065
-0.20980626987779627 -0.8323684822495337 0.09313113174329085
0.34556352041976535 -0.09563738952171429 0.41245846382587886
0.4656888390294302 0.881521111403187 -0.1850262968282195
-0.722703543342785 -0.03448778892973182 -0.36622284184231974
-0.1252182106143249 0.5292308546018664 0.24865183525745777
0.7403354472434456 0.2325399329357225 0.192104000830652
0.1491286306341817 -0.413267949047625 -0.2681795935926528
0.32881661555658975 -0.0050505585018973745 0.42729807276728676
0.22409096668839612 -0.541232402635089 -0.5433210461295023
0.6374884905789366 -0.2883051696357803 0.31393352896369586
-0.05196694897582943 -0.2694295760728755 -0.271106326026895
0.689895650776062 0.29616947588549253 0.2422005526810408
0.08380059890464939 0.5995759784831391 -0.3949655739951014
0.11664853667668856 -0.3659202145050026 -0.2539709826721537
0.40797626120228875 0.507823831988625 0.40121319809876815
0.5491333216439472 0.9242419085087196 -0.05054362796402449
0.07163600967835411 -0.5109542228956173 0.16317248413852325
0.29982617520521027 -0.5238253239585601 -0.6112440071635152
-0.049087126639243195 -0.7470390146133536 -0.39006632916186246
-0.20223257740380635 -0.2784363148228186 -0.293763331120359
-0.14300400251827122 0.5988849126542565 0.21102936486302115
-0.5670369608663951 0.379660296523304 -0.30353836573800885
0.7051282748039289 -0.15203705668885076 0.09731528362445717
0.5040778890684887 -0.512140705121696 0.6720886921207341
0.7325746864531935 0.06052289312878633 0.16982342066715883
0.07859815465973168 0.706459491843507 -0.34152295920337505
0.45257803880895286 0.13635306598963579 -0.44755236554178734
-0.2285886153197509 0.5654780582308774 -0.0019853840721339618
0.7461574480220388 -0.7465659091162624 0.36469082670179964
0.41425420524712336 0.9037776644434904 0.0399991533299447
0.4954904808256407 0.3838782007918082 -0.414445278083917
0.66556246780294 -0.41744523603645145 -0.3177172287917017
0.19078994602192376 0.8762414371194456 0.1335150050814506
0.07195408302343595 -0.2344529496011068 0.3006162098986599
-0.01992277568191964 -0.058264343548960484 -0.37883879773996304
0.6944922682719838 -0.6186077483467767 0.45400307604384277
0.6558023071186934 0.039110721846289914 -0.2791599888903159
0.2119761479315652 -0.40446944536532525 -0.2906329402133666
0.4958468831529536 -0.04328915298383975 -0.4101867565357351
0.3643281315565086 0.8755166189032247 -0.20652141889315623
0.14838951055891966 0.6056685704347966 0.35008805654611824
0.7837284317239264 -0.4570699666966911 -0.029382025251934354
0.23390490236263856 0.5514902680139782 0.40382242926229006
-0.4075037277795591 0.3978831532395572 -0.11661020769445732
0.21671177949736992 -0.17544862786534168 -0.41187780834879606
0.7225376417779042 0.3243550076100192 0.23341291841161266
0.7807490684484116 -0.7229684137722326 -0.20121542918877858
-0.19068525641374007 0.5548014344192544 0.08988975841013666
0.26799309735075233 -0.45552193347404457 0.473294567667673
0.13009171210128925 -0.3629614459065076 0.23092553908712377
-0.5665970356822801 -0.28293854004906677 -0.3538523058458277
0.698870925436114 -0.6058796658742484 -0.48160509191947826
0.06379916299800158 0.8624698910112532 -0.10153547619040816
0.47630596710744066 -0.3863426971418307 -0.37373188991344236
0.7386901613793172 -0.4187621512169881 0.23206797158735476
0.10196224366420509 0.8503012972644264 -0.1970638855462266
0.11289973338474384 -0.019139605880810026 -0.4281052696915862
0.7503541855391617 0.5717491373833721 -0.02936257472363806
0.42823284227423597 0.23132999566081597 -0.43945465295251873
0.05018550941362671 0.5034434586014098 0.364558105449895
0.0028108873760065937 0.1096154544744654 -0.4674393865761035
0.5553449050628297 0.5204203373579718 -0.367831514947302
0.6770205451925877 -0.29214893727176017 0.275426631606136
-0.12892696870095355 -0.7128913238916273 0.16589727432310022
-0.0706932311303416 -0.0054921999090973275 0.4107388082947351
0.736019718259098 -0.019535481339077294 0.14140219430562906
-0.26822478746722367 0.4101993421716915 -0.11494489922767102
-0.09814021485396794 -0.280514660978722 -0.21836736270000795
-0.22152006450710493 0.5671422225489403 0.0361004665552456
0.16730514932714055 -0.06002804880595212 0.4044379812754341
-0.3278704045624074 -0.21565573022574916 -0.5746129416378318
-0.0778481651715979 0.6653136154556187 0.18433008233008175
0.04103918451943908 -0.5551212239874213 -0.11433049136325035
-0.25716430175892835 -0.3621410912718901 0.2807640854004048
-0.40695739676417575 0.3045829735223964 0.4424511784588831
0.7362708589038656 -0.03740536817418742 -0.15898203943937858
0.5440681752458276 0.7752474293123467 0.21740742192114582
0.7660273068255053 -0.3041373275946648 -0.037757193906607096
0.7919920458780757 -0.6256980379851655 0.12911632531466238
0.13984329167011117 -0.10044281415964137 -0.4302476881759953
0.2165287157016393 0.4415513054879953 -0.45760314000175634
0.5215747834197978 0.4830444310134097 -0.39374991597657816
-0.05214200373049685 0.3799938158761505 0.3810555858913877
-0.8013792140785212 -0.05042463649679964 -0.05526381352206444
0.5949530455665812 0.7409704497848859 -0.25538457841981055
0.7181647053573906 0.07451754823802531 0.14666985502777563
0.24834062680471602 -0.49307403872199734 -0.43472302590724565
-0.051664893712874096 -0.09546405099013196 -0.3669802682971549
-0.3305711676237947 0.40073437185806043 0.0348155875389618
-0.07150157220336437 0.33986966429818344 -0.4215727525558137
0.6886468124445626 0.7731931102796329 -0.02358805611706244
-0.6215018725424043 0.36688072735822647 -0.08693442225781156
0.6668473468192239 -0.3223916484008091 -0.30892101340684874
0.7598797957351286 0.14661379174033332 -0.06087300263812092
0.7478936937096708 0.48167831743777056 -0.08838005416972136
0.6579601716108671 -0.44864273927510745 0.3448209678983333
