-0.17882012059750169 0.8661920356347079 0.21726745680913176
-0.6399234609472517 0.7083888357648325 -0.12953244600162758
-0.008677120066597854 -0.9730345319837972 0.11319818775405464
-0.42531102830156753 0.24955358112548578 -0.08767116091133605
-0.6937877182906211 -0.2960205451184886 0.2500572072843437
-0.83965139169032 0.011289267812428797 0.22304324567611433
-0.11710798361118646 1.0 -0.05103475727694337
-0.0662725552031351 0.8110831094293265 -0.2469091649352939
-0.02875508361861203 -0.5104258697148931 -0.09273560940028076
-0.42066776686503576 -0.22645850792289318 -0.06477935668198762
-0.8678716314002071 0.20771775517100813 -0.1874105583683523
-0.41483136100802015 0.9023096588627344 -0.060907042330359575
-0.2388370024292259 -0.5568221138861906 -0.21697144384113703
-0.7437482414758622 -0.39531622620846285 0.22161975669350487
-0.6905295550763446 0.13567244195039205 -0.25168376318356395
-0.6669212580248055 -0.6492024066965609 0.14598187653026332
-0.5822403332317999 0.17381366236235524 -0.22390905835041977
-0.7542370013179145 0.3811227579922239 0.22345443092517187
-0.3920838252149504 0.8158263888994127 0.19772150837297434
-0.9584182602620777 0.0712676982668087 0.07791728104511775
-0.8293333697035273 -0.1606415904281732 0.2195698921472205
-0.4454126324796946 0.428394917669499 0.2233170324144303
-0.9578434091399308 -0.10230379922036449 -0.06828018991302978
-0.5821403151982454 -0.29942823024151327 0.24335498875302267
-0.7943563561712895 0.14960525710948894 -0.237332690793239
-0.5065953810863878 0.8163537567127003 0.13007092692975453
-0.7250327458031575 -0.6434458132097556 -0.06016387803255436
-0.6757723488527982 -0.5072222617916463 0.22085901346859005
-0.44642594649641376 0.20634275978042507 0.08966374240203916
-0.26962336138384546 -0.4558392599069631 0.15106865227720354
-0.9091255342503675 -0.15968182141931656 0.1495047339343508
-0.17922928528022475 -0.45125459489412995 -0.034919124306756325
-0.48176060026984663 0.3594319783920636 -0.2153186205795692
-0.14128709065220343 -0.5607076629473092 0.19379150685249816
-0.21535398049042176 -0.9377059399093676 -0.12049041165503073
0.7689608681969426 0.30168318227074276 0.25020773947625913
-0.8167614059706725 0.5420042906726112 -0.03615369033709614
-0.6262250314829492 -0.7193989017211689 -0.1095288392907206
-0.602611683015574 0.33948393725535364 -0.24950458239187573
-0.7130134069627706 0.0059721778118579875 0.252102020414792
-0.3769518039363663 -0.2863965876675744 0.03456794987783151
-0.015640900909911524 0.5114311014662745 0.022163592122418033
-0.16572685075036256 -0.46831928787160115 0.0774656844693715
-0.07122092215616653 -0.48539509396391173 -0.0030646333707643253
0.003446783081596043 -1.0 0.014322986518276275
-0.7069840370208164 0.5809001926104859 0.17515885439950538
-0.3304909016423669 -0.889344694977832 -0.1372944515753598
-0.4119399305834436 0.548013454951221 0.24603729056198517
-0.3134888462212631 -0.934419488766409 -0.043321952493454635
0.031823727813550244 0.7642817417079747 0.2524566298064853
-0.9334551734832998 -0.030470443408230685 0.133858478523653
-0.3340693246206513 -0.3817279176093872 0.12416784238370253
-0.21955170705021057 -0.6875860950686564 0.25174033904092813
-0.5969924880395102 -0.7398985574671798 0.11881940329645296
-0.63502964928525 0.08674402404878051 0.23876022090851737
-0.172370472857985 0.8178045233408245 -0.23952298469976657
0.7829088376035478 -0.07543723792623216 -0.252334385543252
-0.1629435206246783 0.6117178703432892 0.22129343523049358
-0.25677154921367135 -0.40408952523257985 0.01960595925629015
-0.6492655493945121 0.4492390799755309 -0.24556750888922904
-0.8960656037477465 0.39633661220735256 0.004958560710188655
-0.15345292055183685 0.9902194486581672 0.0682724107326422
-0.6158878141159796 -0.6462746060779646 -0.18998880101109142
-0.5847458354864994 -0.18013702470596973 -0.22762184898994417
0.00955141911950793 -0.6493802165339914 -0.23226612070964311
0.5556304848904575 -0.1170862625230913 0.11882546499545626
-0.8692870381174788 0.10925858854348991 0.19984108245779672
-0.9142941429338524 -0.1554477246655079 -0.1435551763626068
-0.5185642057684139 -0.5124898782255185 0.2523283238442487
-0.9204982918637351 0.30874304104325884 0.057626955971354435
-0.25499345083936853 0.9598836759961266 0.08397039264150154
-0.8478033665665982 0.020716765598645808 -0.21808679645774517
-0.09641637406340436 -0.7480161827157725 0.251999981814903
-0.12072984876566129 0.5276229097872698 -0.1323076938619741
-0.3391409461200833 -0.912734770865252 0.08688697911694179
-0.37314303639595625 0.3638428747001354 -0.13245519520438787
-0.7509465090422869 -0.5533750277196444 -0.14022427276029065
-0.8701993238174762 0.31614336524312714 -0.1529346452870543
-0.26450829770822315 0.5532315675098995 0.21333543472232117
-0.7417842509987912 0.25376141051694673 -0.2454392029269924
-0.9289563825396803 -0.23806161009838644 -0.07947119758461502
-0.7310580746124428 0.6504026230992155 0.06630245958488475
-0.25260312086573183 0.6592941252538969 0.24835791099708382
-0.502560310116521 0.5909676643718085 -0.249589446177922
-0.09688817630249494 0.7998386577781954 0.24813362813396153
0.03253449233018279 -0.5715682069948976 0.17907976337147657
-0.2857232339366239 0.8105769575625504 0.22816841218340883
-0.8081689476334875 -0.3338142281209289 -0.20024923685735257
-0.899268201387826 0.20369177674964628 0.1558533533571457
-0.10515229261033428 0.9490504095940532 0.16035315458393257
-0.4303422384743108 0.7764778801026245 -0.20851638401469358
-0.9669834409537478 0.0781837937446297 -0.041129739048909326
-0.44153314511757935 -0.21102744282681277 0.10035263933951728
-0.38487444453368613 -0.5850938780376058 -0.2506866136975202
-0.2733351417402027 0.8919542563987548 -0.17708445411622198
-0.23283794098228824 -0.9529521231858473 0.07524205121832574
0.011393165333345473 0.9509093306217333 0.16987103230228884
-0.4857865786912085 -0.04855946248894373 -0.09863384458713012
0.24403389904139286 -0.5556006815370246 -0.19817209466555336
-0.8109593497413423 0.5372903094143742 0.07099370947185933
-0.4299926804984535 0.6757405249330309 -0.2457513804256626
0.7290940841353719 -0.724790782984609 -0.016743726015246183
-0.25177468866861347 0.4226787355093823 0.0024158699321039194
0.2384157143484962 0.7467220099785669 -0.25218688420083823
-0.4588271723740089 0.7330609609914515 0.2217430112399054
-0.46696601356911327 -0.5162269156610562 -0.2505562871689492
-0.3188504189896865 0.952611657758495 -0.0005504537939416354
-0.1392069176109026 -0.8431363634756368 -0.22635495389825339
-0.5297884517562005 0.7127562898967138 -0.20537743421414872
-0.8690486112900154 -0.43717528867578653 -0.008121989671875184
-0.3888084871868312 0.4635073091461441 -0.2138506791376021
-0.7369924779366785 -0.4698175378085847 -0.20124032464439298
0.2647295497218438 0.754269835520849 0.2513897707819036
-0.327342859293317 0.9028259135611825 0.14232061033226698
-0.4020623920575579 0.3159322160611787 0.12094402879711141
-0.46701854829380857 0.08739989988093812 0.049460736102418475
-0.7139852993696338 -0.3496564784660669 -0.24137685431161074
-0.7768895704932657 0.2703674349365012 0.23298847317420365
-0.5205241551128158 -0.7857351047638388 -0.13602856676683628
-0.424472493272777 -0.8819665970076424 -0.06036492438283064
-0.7352699451365726 -0.6321003332419027 0.06018842791351774
0.554981883097104 0.3034178384688552 -0.19536451774385585
-0.02796766891808269 0.6797250817445368 0.23824598677640366
-0.2664965349813072 0.44641937965582684 -0.11524805230033901
-0.8540257005934909 -0.4077245240682285 -0.11230307686789992
-0.47708703033829836 -0.25008600035460943 -0.17415463293129116
-0.3593496403139354 -0.4621808073475875 -0.2080961062171311
-0.6091805441688224 0.05066246792982371 -0.22698537059459714
-0.9263973352771182 -0.04185219254178659 -0.1439623204789955
-0.12121377440275846 -0.9770312121933097 -0.07552119245742793
-0.09937852430968613 -0.9323777064854624 0.16209690333055002
-0.5280729909382652 0.3436897460804802 0.231554881359922
-0.6711422210974404 -0.7099325484443408 0.030719983350533404
-0.502095579859601 0.8609062341038258 0.014790343511431102
-0.03845026603281499 0.5814507969366194 0.17833114354456842
-0.2930780953939675 -0.8278558305714718 -0.20935794989298576
-0.6070771346146755 -0.39599715706316746 -0.25249704113317406
-0.5713090693625062 0.016182402584708443 0.20292850781681343
-0.6343992325889062 -0.06722333269180353 0.23834903565945983
-0.14143560227778443 -0.5142932336790017 -0.14649409009604258
-0.46837838943688337 -0.035520545876200925 0.027196216691595405
-0.5913823856119512 -0.5886399719545393 0.22744707000201553
-0.10644747563070715 -0.6623088102248739 -0.2420729394138236
-0.041612351317889124 0.9985532745045447 0.08722885894072821
-0.12848680292355744 -0.9848487833412388 0.03559975207651077
0.8244001569980043 0.635134213593057 -0.032717313172122446
-0.325424331558771 0.8086715635091782 -0.22116512926825696
-0.7663240291305049 -0.07029449249182809 -0.24786388252831448
-0.7891584492759554 -0.5723794643781733 -0.008392866794669546
-0.485519863935063 0.256521504129785 -0.1780896858676034
-0.45788861931166375 -0.8639623406846588 0.058496809778328725
-0.3905502153671142 -0.7732722516130434 -0.21453868197447723
-0.2892157828456949 -0.5554602521767814 0.22869982112936527
-0.7516870466038574 0.12130419474622445 0.24914795243384794
-0.015315084588483869 -0.9802014807720383 -0.09746686650067715
-0.5243086758572126 -0.8281952857156569 -0.04058671184652991
-0.9279693358853087 0.2666596957128129 -0.07353851174176354
-0.630966290386701 0.21148712166789668 0.24494214360872138
-0.7807458213425351 0.49136586748216726 -0.16311122763043642
-0.12667839605423806 0.5317812353035372 0.14164574117656567
-0.9712892678124289 -0.03078544969976911 0.0177892680649996
-0.3861807406688984 -0.3225697764697979 -0.12220890332246775
-0.8862395896633889 -0.26760835160683016 0.14672241409183373
-0.6796740624445924 -0.18179287881703926 0.25171407167858045
-0.8871983483890783 -0.357561944249544 0.0890099881645327
-0.2589709356687039 0.6118987110302212 -0.23766305338891913
-0.8189890803543871 -0.5033791446235508 -0.07837564651808433
-0.32877443054126426 0.6841097106902608 -0.2520969689989559
-0.8317863372335315 -0.15454453151401543 -0.21876368617978093
-0.2743221883945742 -0.6704557336853161 -0.2520989895652903
-0.6532006023308243 0.3658240399910489 0.2515584880708289
0.010481384774931657 0.904927302548995 -0.2099196673339587
-0.5793680981874004 -0.49563936527949737 -0.24949346927703633
-0.5051294602107552 -0.802906887757035 0.12813017296552964
-0.8033397940941877 -0.45781436349887333 0.14969163632028604
-0.8539529602054512 0.4183789703497045 -0.11722113532591484
-0.27529509108460465 -0.8836466979147252 0.168311155092105
0.9712892678124289 -0.2864693280556141 0.11831022058017533
-0.28613037805301256 -0.7949286815855182 0.22797645838163752
-0.2786148815720815 -0.41708984902833496 -0.1077527614827522
-0.6660695893148411 0.7318991353491514 0.02119028531912067
0.4269547590146305 -0.5307992400650017 0.23516664368272464
-0.308281846777424 0.40430370526403 0.0993071983180806
0.007271007954464534 0.6588142407494685 -0.22924537403966272
-0.36301898877726946 0.6908937621581266 0.2498895002785856
-0.23484739420188386 0.48327754044542376 0.1402525606889727
-0.6666798003478406 -0.5572312785689137 -0.2068635607531257
-0.15529264619934 0.9162980395960283 -0.18549102035063897
-0.6936503197798796 0.5366174608250074 -0.2069443834065031
-0.7332200805902883 0.3695883550721014 -0.23453521670321367
-0.5906761976780662 -0.7819313886392649 0.023907744982302366
-0.40622879983916294 -0.8403793007123002 0.15442178210919846
-0.5008660652450972 0.8373231941314672 -0.10176380286748672
-0.18476260618707516 0.7419645865441397 0.2520767633356116
-0.5093322381863801 -0.6522787189407384 0.23222874023245607
-0.4282155924073179 -0.29807445079744177 0.1519324443851745
-0.71971259464459 0.4831401419346822 0.2125191259232094
-0.4454843625845671 0.1619984007217463 -0.018369675744566067
-0.49266458649362543 0.48954533721484134 -0.24891760787172235
0.028180727535217227 -0.6952884939355227 0.24646160949221654
-0.7908910849077334 -0.2767312086068044 0.22318771616902647
-0.5666789416071484 0.7070512208514363 0.1897119834232738
-0.46155897805816504 -0.3689528869599216 -0.2146811319010549
-0.5221870812060558 0.18830819496242504 0.1858830102195194
-0.05697148425246369 0.5863931021906476 -0.18538292005174672
-0.7278918471663831 0.6286572882080254 -0.11022391410976627
-0.6703723853240205 -0.030704930131341873 -0.24778103930860262
-0.4030373153139228 -0.42757557802088564 0.2107329452835688
-0.5609031527401658 0.6076979536209307 0.23614257722225676
-0.592431059539523 0.4495068050148436 0.2519656321872176
-0.44810200627082764 -0.13810520381705188 0.015449250193090371
-0.5768363285703534 -0.06980561646721152 -0.21076931547758865
-0.8225109274753074 0.45802753324715617 0.13666908629485217
-0.4971138735620514 0.08257408027609019 -0.1261035449320913
0.2878983735956433 -0.9684266304581179 -0.01594560231314434
-0.9279865106991513 0.13387211734641044 -0.13087915346352852
-0.05983492983330832 -0.7669468687030945 -0.25145543918777274
-0.5125722163036467 0.5138729558814392 0.2520009920980702
-0.9177584039142412 -0.319407590156407 -0.011680287809468679
-0.21844342641577294 0.9595199740559284 -0.10719003375861204
-0.9487205521399567 -0.18442567675080812 0.056075059998191595
-0.033959254269582934 0.9803429204154487 -0.1268521647589995
-0.8633667787575842 -0.2463610863170784 -0.17934243699495314
-0.183024919139461 -0.8662637657395804 0.2067180799770464
-0.38945809926335206 -0.761065000103554 0.2210459158545253
-0.501854122182636 -0.6537991951074007 -0.23385832698117792
-0.7441644781407557 -0.5636314224332367 0.13900486097745907
-0.5927472781708621 0.7676308304073008 0.1063464473139854
-0.8553542229583819 0.30844399722576243 0.1724624086262018
-0.3662731108588771 -0.6373719908084438 0.25233539582641923
-0.37291370211699787 0.3045129854221191 -0.015006443080898931
-0.026360712512306494 -0.5674775704508338 -0.1786261462293959
-0.03702445339892091 -0.9048212228164372 -0.1964505721486147
-0.10404300169272945 0.6750141313358015 -0.24087979499333972
-0.4020664331902267 0.9075116068907374 0.06381019203967585
-0.1632041736818204 0.4754397636341502 0.03890741916598094
-0.04967936137980433 -0.515892511932707 0.11153627194398183
-0.5266363682744818 -0.16613348972516764 0.18777628087488504
-0.5990221469224503 -0.4049502864910492 0.25249704113317406
-0.36971716617592165 0.5886328999723688 -0.24786691337781613
-0.9561431025695037 0.1898791852874483 0.015399544261263269
