-0.00017195052080000548 -0.845671 0.23097
-0.9911099999999999 -2.60417e-09 -0.0657715
-0.50189 -2.60417e-09 -0.0279709
-0.00017195052080000548 0.57582 -0.179131
0.49822299999999997 0.032672 6.77083e-08
-0.7864690000000001 0.616479 6.77083e-08
-0.898512 -0.436683 6.77083e-08
-0.00017195052080000548 -0.92418 0.179131
-0.882093 -0.471397 6.77083e-08
-0.332518 0.372775 6.77083e-08
-0.6808369999999999 0.731072 6.77083e-08
0.493493 0.0754827 6.77083e-08
-0.344637 0.361792 6.77083e-08
-0.00017195052080000548 0.888892 -0.207867
0.499025 0.016336 6.77083e-08
-0.00017195052080000548 0.758168 -0.249599
0.418803 0.906715 6.77083e-08
-0.6105750000000001 -0.790803 6.77083e-08
-0.485145 -0.11918 6.77083e-08
0.5334399999999999 0.844631 6.77083e-08
-0.00017195052080000548 0.834121 0.235103
0.374351 -0.330417 6.77083e-08
-0.00017195052080000548 -0.998796 -0.0245039
-0.49864 -0.0311875 6.77083e-08
-0.00017195052080000548 0.786638 0.246996
0.17726799999999998 0.983403 6.77083e-08
-0.647786 -0.761028 6.77083e-08
0.490876 -0.0931326 6.77083e-08
0.8058799999999999 0.589841 6.77083e-08
0.306913 0.950929 6.77083e-08
0.912264 -0.406877 6.77083e-08
-0.498968 0.0245045 6.77083e-08
0.365712 -0.92989 6.77083e-08
-0.926949 -2.60417e-09 0.176777
0.9409559999999999 -0.334475 6.77083e-08
0.942394 0.330458 6.77083e-08
-0.177612 -0.983403 6.77083e-08
-0.110698 0.487141 6.77083e-08
-0.00017195052080000548 0.968378 -0.121356
-0.382855 -0.92388 6.77083e-08
-0.00017195052080000548 0.798772 -0.245196
-0.00017195052080000548 0.689328 0.242216
0.75187 -0.657529 6.77083e-08
-0.00017195052080000548 0.999312 -0.0140022
-0.54809 -0.836056 6.77083e-08
-0.00017195052080000548 0.841821 -0.232347
0.016874699999999996 -0.999163 6.77083e-08
0.131989 -0.481722 6.77083e-08
0.039925499999999996 0.49803 6.77083e-08
0.111082 0.993221 6.77083e-08
0.677257 -2.60417e-09 0.239235
-0.00017195052080000548 0.973977 0.110456
-0.496564 -0.0570983 6.77083e-08
0.059491199999999994 -0.997069 6.77083e-08
-0.00017195052080000548 0.59797 -0.198125
0.378095 0.326286 6.77083e-08
-0.46020500000000003 0.195374 6.77083e-08
0.573051 -2.60417e-09 -0.176777
-0.441133 0.235698 6.77083e-08
0.8211299999999999 0.569278 6.77083e-08
-0.20354 0.978712 6.77083e-08
0.8259829999999999 -0.562736 6.77083e-08
-0.45639 -0.203439 6.77083e-08
0.879702 -2.60417e-09 0.213273
-0.234205 -0.97103 6.77083e-08
0.917516 -2.60417e-09 0.185015
0.203267 0.456218 6.77083e-08
0.7003250000000001 0.713098 6.77083e-08
-0.9959849999999999 0.0852322 6.77083e-08
-0.274131 0.418028 6.77083e-08
0.957805 0.286146 6.77083e-08
-0.00017195052080000548 0.945341 0.155783
0.8135049999999999 0.57956 6.77083e-08
0.9289590000000001 -2.60417e-09 -0.17418
-0.985274 -2.60417e-09 0.0841211
-0.506003 0.861282 6.77083e-08
-0.00017195052080000548 -0.588805 0.190898
0.8874709999999999 0.4593 6.77083e-08
-0.431245 0.900993 6.77083e-08
0.436202 0.24335 6.77083e-08
0.442536 0.232002 6.77083e-08
-0.277475 -0.960192 6.77083e-08
-0.00017195052080000548 0.943252 -0.158598
-0.273901 0.961087 6.77083e-08
-0.00017195052080000548 -0.501032 0.0210035
-0.418009 0.274278 6.77083e-08
-0.0933046 -0.491047 6.77083e-08
-0.7954779999999999 -2.60417e-09 0.24571
-0.031359500000000005 0.498468 6.77083e-08
-0.00017195052080000548 0.888893 0.207867
0.232169 -0.971454 6.77083e-08
-0.33464700000000003 -0.941129 6.77083e-08
0.36161899999999997 0.344464 6.77083e-08
-0.8755120000000001 -0.482376 6.77083e-08
0.456523 0.202431 6.77083e-08
0.870781 -0.489695 6.77083e-08
-0.19151400000000002 0.46194 6.77083e-08
-0.223773 -0.446683 6.77083e-08
-0.00017195052080000548 0.608293 0.205779
-0.208243 -0.977533 6.77083e-08
-0.00017195052080000548 0.991222 -0.0646383
0.946706 0.318406 6.77083e-08
0.770248 -2.60417e-09 -0.248997
-0.510937 -2.60417e-09 0.0725711
0.966099 0.253035 6.77083e-08
-0.00017195052080000548 0.500803 -0.0163359
0.7539119999999999 -2.60417e-09 -0.249799
0.29075 -0.405992 6.77083e-08
0.247004 -0.434081 6.77083e-08
-0.00017195052080000548 -0.742999 0.249656
-0.427373 -0.258655 6.77083e-08
-0.9878439999999999 0.148664 6.77083e-08
0.737576 -2.60417e-09 -0.249398
-0.997425 -2.60417e-09 -0.0349049
-0.00017195052080000548 -0.667529 -0.235693
-0.291094 0.405992 6.77083e-08
-0.677532 -0.734068 6.77083e-08
-0.7135340000000001 -2.60417e-09 -0.246996
0.390577 -0.920065 6.77083e-08
-0.8532360000000001 -2.60417e-09 0.227473
-0.09818900000000001 0.995185 6.77083e-08
-0.00017195052080000548 0.54944 0.148745
-0.5039469999999999 -2.60417e-09 -0.0418389
-0.00017195052080000548 -0.746499 -0.249828
0.9819789999999999 -2.60417e-09 -0.0923709
-0.8930389999999999 0.448254 6.77083e-08
-0.00017195052080000548 -0.926777 -0.176777
0.5105930000000001 -2.60417e-09 0.0725711
0.718396 0.694461 6.77083e-08
-0.00017195052080000548 -0.95056 0.148745
-0.9840869999999999 0.173987 6.77083e-08
0.994359 -0.102429 6.77083e-08
-0.73424 0.67736 6.77083e-08
-0.247349 0.434081 6.77083e-08
0.44953 0.217216 6.77083e-08
-0.20361100000000001 0.456218 6.77083e-08
0.865696 0.498179 6.77083e-08
0.414771 -0.908622 6.77083e-08
0.5492680000000001 -2.60417e-09 0.148745
0.9352069999999999 -0.350544 6.77083e-08
0.382511 0.92388 6.77083e-08
-0.00017195052080000548 0.514897 -0.0841209
-0.00017195052080000548 -0.98097 0.0956711
0.9917400000000001 -0.120079 6.77083e-08
-0.634565 0.77301 6.77083e-08
-0.244929 0.968344 6.77083e-08
0.9917400000000001 0.120079 6.77083e-08
-0.697363 -0.716094 6.77083e-08
-0.478642 0.145142 6.77083e-08
-0.40705 -0.912437 6.77083e-08
0.285974 -0.957977 6.77083e-08
0.11900799999999999 -0.484973 6.77083e-08
-0.294473 -0.955503 6.77083e-08
-0.00017195052080000548 0.677429 0.239235
-0.821013 0.569901 6.77083e-08
0.19117 0.46194 6.77083e-08
0.0488365 0.997592 6.77083e-08
-0.30250900000000003 0.952628 6.77083e-08
-0.49056500000000003 0.097545 6.77083e-08
-0.00017195052080000548 0.741832 0.249599
-0.00017195052080000548 0.95578 0.141707
0.6705779999999999 0.740059 6.77083e-08
-0.91493 -0.401969 6.77083e-08
-0.00017195052080000548 0.501204 0.0245041
-0.770187 0.637698 6.77083e-08
-0.00017195052080000548 0.632151 -0.22048
-0.6874480000000001 -0.725081 6.77083e-08
-0.9602219999999999 0.277868 6.77083e-08
0.277132 0.960192 6.77083e-08
-0.9977640000000001 -0.0490085 6.77083e-08
-0.00017195052080000548 -0.818605 -0.240228
0.317025 0.386505 6.77083e-08
0.504632 -2.60417e-09 0.0487721
-0.9706520000000001 -2.60417e-09 -0.117849
-0.6449959999999999 -2.60417e-09 0.226474
0.258483 -0.427201 6.77083e-08
-0.0640961 -0.99686 6.77083e-08
-0.145314 -0.47847 6.77083e-08
-0.7387980000000001 -0.672331 6.77083e-08
0.496843 -0.866566 6.77083e-08
-0.448762 -0.219569 6.77083e-08
0.8421989999999999 -2.60417e-09 -0.232151
0.262309 0.424908 6.77083e-08
-0.00017195052080000548 -0.621629 0.214174
-0.00017195052080000548 -0.992641 -0.0589721
-0.00017195052080000548 0.952995 -0.145461
-0.00017195052080000548 -0.504804 0.0487721
-0.012424200000000005 -0.499398 6.77083e-08
0.564813 -2.60417e-09 0.167688
0.315313 -0.947923 6.77083e-08
-0.707279 0.707107 6.77083e-08
0.9974209999999999 0.0490085 6.77083e-08
0.5176769999999999 -2.60417e-09 -0.0923709
-0.475395 -0.879628 6.77083e-08
-0.515069 -2.60417e-09 0.0841211
0.985195 -0.164203 6.77083e-08
-0.00017195052080000548 0.997767 0.0314378
-0.952604 0.302885 6.77083e-08
-0.90314 -2.60417e-09 -0.197428
0.494802 -0.0666585 6.77083e-08
0.490876 0.0931325 6.77083e-08
-0.8875660000000001 0.459826 6.77083e-08
-0.707279 -0.707107 6.77083e-08
0.131611 -0.990176 6.77083e-08
-0.6242840000000001 0.780635 6.77083e-08
-0.23587 -0.440961 6.77083e-08
0.431616 -0.251002 6.77083e-08
-0.00017195052080000548 0.5 6.77083e-08
-0.00017195052080000548 -0.632151 0.22048
0.459128 -0.887643 6.77083e-08
0.976302 -2.60417e-09 -0.105176
-0.6577010000000001 -0.752042 6.77083e-08
-0.9916 0.12334 6.77083e-08
0.9897769999999999 0.133316 6.77083e-08
-0.8875660000000001 -0.459826 6.77083e-08
-0.967951 -0.247015 6.77083e-08
-0.00017195052080000548 -0.878371 0.214174
0.013193999999999994 0.999343 6.77083e-08
-0.822743 -2.60417e-09 -0.239235
0.15079399999999998 0.98733 6.77083e-08
0.8088 -2.60417e-09 -0.242641
0.591227 0.804898 6.77083e-08
-0.00017195052080000548 -0.774504 0.248796
0.39120499999999997 0.310628 6.77083e-08
0.518802 -0.853405 6.77083e-08
0.480466 -0.136488 6.77083e-08
0.08002379999999999 0.99606 6.77083e-08
-0.486873 0.872748 6.77083e-08
-0.5442640000000001 0.838349 6.77083e-08
-0.7501720000000001 -2.60417e-09 0.25
-0.632323 -2.60417e-09 -0.22048
0.0841357 0.492356 6.77083e-08
-0.19085 0.98144 6.77083e-08
-0.00017195052080000548 -0.715095 -0.247253
-0.8130409999999999 0.58065 6.77083e-08
-0.00017195052080000548 0.525024 0.108344
0.40582 0.290922 6.77083e-08
0.23552599999999999 0.440961 6.77083e-08
-0.381185 0.323256 6.77083e-08
-0.00017195052080000548 0.547004 -0.145461
-0.582484 -2.60417e-09 -0.185015
0.54196 -2.60417e-09 0.138892
-0.999296 -0.0178213 6.77083e-08
0.9988250000000001 -2.60417e-09 0.0204201
0.974804 -2.60417e-09 0.108344
-0.697363 0.716094 6.77083e-08
0.637526 0.770015 6.77083e-08
0.999171 -0.013366 6.77083e-08
-0.133488 0.989949 6.77083e-08
-0.307516 0.393812 6.77083e-08
0.893192 -0.447202 6.77083e-08
-0.049181 -0.497592 6.77083e-08
-0.994702 -0.102429 6.77083e-08
-0.459472 0.887643 6.77083e-08
0.454139 -0.207471 6.77083e-08
0.5005029999999999 0.864373 6.77083e-08
-0.00017195052080000548 -0.701228 -0.245196
-0.00017195052080000548 0.510765 -0.0725709
-0.60565 -2.60417e-09 -0.203692
-0.5569200000000001 -2.60417e-09 0.158598
0.940334 -2.60417e-09 0.161628
-0.00017195052080000548 -0.538529 0.13288
-0.187664 -0.463318 6.77083e-08
0.44703 0.893364 6.77083e-08
0.8416490000000001 -2.60417e-09 0.232348
-0.211676 -0.452404 6.77083e-08
0.794097 -0.60573 6.77083e-08
-0.435277 -0.899086 6.77083e-08
-0.00017195052080000548 -0.892177 -0.205431
0.8223990000000001 -2.60417e-09 -0.239235
0.9980770000000001 -0.0356425 6.77083e-08
0.987813 0.146553 6.77083e-08
-0.00017195052080000548 -0.849367 -0.229222
-0.492965 0.0813663 6.77083e-08
-0.993479 0.110679 6.77083e-08
-0.999484 -2.60417e-09 0.0140024
0.0664859 0.494974 6.77083e-08
0.7779210000000001 0.627539 6.77083e-08
0.16403099999999998 0.985367 6.77083e-08
-0.00017195052080000548 -0.966876 0.123861
-0.462112 -0.191342 6.77083e-08
-0.8680209999999999 -2.60417e-09 0.22048
-0.00017195052080000548 0.995196 0.0487721
0.693122 -2.60417e-09 -0.243209
0.495457 0.0622454 6.77083e-08
0.488053 -0.106199 6.77083e-08
-0.11142600000000001 -0.993221 6.77083e-08
-0.972286 -0.229707 6.77083e-08
-0.5763039999999999 -0.81622 6.77083e-08
0.6474420000000001 0.761028 6.77083e-08
-0.857964 0.511654 6.77083e-08
-0.9776450000000001 -2.60417e-09 -0.103064
-0.00017195052080000548 -0.579283 -0.182269
-0.00017195052080000548 0.926777 0.176777
-0.766508 -2.60417e-09 -0.249197
-0.00017195052080000548 -0.879874 -0.213273
-0.00017195052080000548 -0.835771 -0.234512
0.194918 0.980785 6.77083e-08
-0.393984 -0.307344 6.77083e-08
-0.9991399999999999 -2.60417e-09 -0.0210034
-0.00017195052080000548 -0.713362 0.246996
-0.9598420000000001 -2.60417e-09 -0.135887
-0.00017195052080000548 -0.940506 0.161628
-0.957112 -0.290285 6.77083e-08
-0.9809570000000001 -0.195091 6.77083e-08
-0.44304 -0.231666 6.77083e-08
-0.031359200000000004 0.998468 6.77083e-08
-0.00017195052080000548 0.502404 -0.0325933
-0.00017195052080000548 -0.680829 -0.240087
-0.7612000000000001 0.647614 6.77083e-08
0.489524 0.870953 6.77083e-08
-0.670922 0.740058 6.77083e-08
0.5725340000000001 -0.818761 6.77083e-08
-0.164375 -0.985367 6.77083e-08
-0.913964 -2.60417e-09 -0.188546
0.9950239999999999 -2.60417e-09 0.0487721
0.7498279999999999 -2.60417e-09 0.25
0.5444199999999999 -0.83805 6.77083e-08
-0.00017195052080000548 -0.758168 0.249599
0.0528817 -0.496992 6.77083e-08
0.403384 -0.294207 6.77083e-08
0.13755699999999998 0.989294 6.77083e-08
-0.9204030000000001 -0.390398 6.77083e-08
-0.06683040000000001 -0.494974 6.77083e-08
-0.00017195052080000548 -0.511946 0.0758711
-0.00017195052080000548 0.905783 0.19534
-0.698 -2.60417e-09 -0.244344
0.498077 -0.0356429 6.77083e-08
0.136316 0.480638 6.77083e-08
0.5862419999999999 -0.808594 6.77083e-08
-0.00017195052080000548 -0.693294 0.243209
0.350076 0.356549 6.77083e-08
-0.778497 0.627227 6.77083e-08
-0.306525 -0.95119 6.77083e-08
0.046706199999999996 -0.997697 6.77083e-08
-0.9875020000000001 -0.150966 6.77083e-08
0.952456 -0.302336 6.77083e-08
0.123335 0.48389 6.77083e-08
-0.9983679999999999 -2.60417e-09 0.0285487
-0.9369879999999999 -0.346528 6.77083e-08
0.442998 -0.895271 6.77083e-08
0.979576 -0.199229 6.77083e-08
0.9685060000000001 -2.60417e-09 0.120855
-0.9300630000000001 0.365883 6.77083e-08
-0.00017195052080000548 -0.523526 -0.105176
0.9819789999999999 -2.60417e-09 0.0923711
-0.424316 0.263756 6.77083e-08
0.17857 0.466448 6.77083e-08
0.261141 -0.964197 6.77083e-08
-0.00017195052080000548 0.523526 -0.105176
0.9970809999999999 -2.60417e-09 -0.0349049
-0.7617210000000001 -0.64704 6.77083e-08
-0.00017195052080000548 0.665879 -0.235102
-0.00017195052080000548 -0.654329 -0.23097
-0.00017195052080000548 -0.732497 -0.24914
0.480285 0.137209 6.77083e-08
-0.16631400000000002 0.470956 6.77083e-08
-0.501376 -2.60417e-09 0.0245041
-0.752213 0.657529 6.77083e-08
-0.19085 -0.98144 6.77083e-08
0.721857 -2.60417e-09 -0.248282
-0.0625464 0.996936 6.77083e-08
0.7098 0.703946 6.77083e-08
0.463146 0.187492 6.77083e-08
-0.00017195052080000548 0.998196 -0.0285488
-0.916561 -2.60417e-09 0.186191
0.434933 0.899086 6.77083e-08
-0.00017195052080000548 -0.664229 0.234512
-0.60565 -2.60417e-09 0.203691
-0.406164 -0.290922 6.77083e-08
-0.900336 0.432826 6.77083e-08
0.6640569999999999 -2.60417e-09 0.234512
0.980613 0.19509 6.77083e-08
0.031015299999999996 0.998468 6.77083e-08
-0.00017195052080000548 -0.632151 -0.22048
-0.00017195052080000548 -0.548396 0.147337
-0.221224 -0.974282 6.77083e-08
0.244585 -0.968344 6.77083e-08
-0.00017195052080000548 0.936192 0.166389
0.690409 0.722085 6.77083e-08
-0.0811425 -0.996022 6.77083e-08
-0.00017195052080000548 0.52952 -0.117849
-0.463504 -0.885735 6.77083e-08
0.733492 -2.60417e-09 0.249197
-0.151138 -0.98733 6.77083e-08
-0.559169 -0.828928 6.77083e-08
0.9567680000000001 -0.290284 6.77083e-08
-0.00017195052080000548 -0.510765 -0.0725709
-0.00017195052080000548 -0.5 6.77083e-08
-0.8289850000000001 0.559153 6.77083e-08
-0.8359430000000001 -2.60417e-09 0.234512
0.347322 -0.359045 6.77083e-08
-0.31857800000000003 0.946878 6.77083e-08
-0.9855389999999999 -0.164204 6.77083e-08
-0.654501 -2.60417e-09 -0.23097
0.446511 -0.223601 6.77083e-08
-0.9094580000000001 -0.413541 6.77083e-08
0.906542 -0.418975 6.77083e-08
-0.00017195052080000548 -0.989235 -0.0725709
-0.829099 -0.558997 6.77083e-08
-0.78681 -2.60417e-09 -0.246996
-0.00017195052080000548 0.531622 0.121356
-0.261485 0.964197 6.77083e-08
0.5912299999999999 -2.60417e-09 -0.193253
0.5768949999999999 0.815527 6.77083e-08
-0.00017195052080000548 -0.992641 0.0589716
-0.00017195052080000548 0.812371 -0.24179
0.417856 0.273959 6.77083e-08
-0.80507 0.591399 6.77083e-08
0.9733559999999999 -0.224062 6.77083e-08
0.9308939999999999 -0.362596 6.77083e-08
0.864201 -0.500674 6.77083e-08
-0.374821 0.926754 6.77083e-08
0.9380809999999999 0.342511 6.77083e-08
-0.00017195052080000548 0.51903 0.0956711
-0.128006 0.482806 6.77083e-08
-0.00017195052080000548 -0.505798 -0.0527393
0.340513 -0.938907 6.77083e-08
-0.996613 0.0724473 6.77083e-08
-0.96885 -2.60417e-09 0.120855
0.677257 -2.60417e-09 -0.239235
-0.9716260000000001 0.23234 6.77083e-08
0.885213 -2.60417e-09 -0.209969
0.90845 0.414943 6.77083e-08
-0.821474 -0.569279 6.77083e-08
-0.00017195052080000548 0.536727 -0.129874
0.772839 -0.634393 6.77083e-08
-0.00017195052080000548 -0.760502 -0.249484
-0.6510910000000001 0.758032 6.77083e-08
0.097373 0.490393 6.77083e-08
0.871184 -2.60417e-09 -0.218378
-0.394952 -0.918158 6.77083e-08
-0.9507319999999999 -2.60417e-09 -0.148745
-0.6677010000000001 -2.60417e-09 -0.235693
0.877362 -0.478715 6.77083e-08
-0.960364 -0.277304 6.77083e-08
-0.467622 -0.175942 6.77083e-08
-0.00017195052080000548 -0.832471 0.235693
0.891535 -2.60417e-09 0.205779
-0.00017195052080000548 -0.99571 -0.0453059
-0.168414 -0.470205 6.77083e-08
0.501546 -2.60417e-09 0.0279709
-0.415907 -0.277785 6.77083e-08
-0.405278 0.292117 6.77083e-08
-0.9204030000000001 0.390397 6.77083e-08
-0.9427380000000001 -0.330458 6.77083e-08
-0.00017195052080000548 -0.601255 -0.20056
0.378312 -0.925382 6.77083e-08
-0.00017195052080000548 -0.998282 0.0279709
0.14849299999999999 -0.987672 6.77083e-08
-0.00017195052080000548 -0.50821 0.0623715
-0.6140019999999999 0.78826 6.77083e-08
-0.00017195052080000548 -0.500688 -0.0140022
-0.386888 0.921972 6.77083e-08
0.8950990000000001 0.44317 6.77083e-08
-0.00017195052080000548 -0.588372 -0.190507
-0.00017195052080000548 0.830271 -0.23648
0.47679499999999997 -0.149342 6.77083e-08
-0.479726 -0.140815 6.77083e-08
-0.09818900000000001 -0.995185 6.77083e-08
-0.9058090000000001 0.421254 6.77083e-08
-0.00017195052080000548 0.504804 -0.0487719
-0.8930389999999999 -0.448254 6.77083e-08
-0.928364 -0.370632 6.77083e-08
-0.7338359999999999 -2.60417e-09 0.249197
-0.356472 0.350524 6.77083e-08
-0.9968889999999999 -0.0668298 6.77083e-08
0.17576999999999998 -0.46745 6.77083e-08
-0.00017195052080000548 0.845671 0.23097
-0.994516 -2.60417e-09 -0.0521726
-0.491765 -0.0894557 6.77083e-08
-0.6895 -2.60417e-09 0.242216
-0.8645449999999999 0.500675 6.77083e-08
-0.024676500000000004 -0.498796 6.77083e-08
-0.1732 0.984058 6.77083e-08
0.47854399999999997 0.877534 6.77083e-08
-0.04918050000000001 0.997592 6.77083e-08
0.7986 -2.60417e-09 0.245196
-0.12025100000000001 0.991912 6.77083e-08
0.26415099999999997 0.963443 6.77083e-08
0.365711 0.929891 6.77083e-08
-0.470377 0.168242 6.77083e-08
-0.00017195052080000548 -0.913792 0.188545
0.6163069999999999 0.786297 6.77083e-08
-0.00017195052080000548 0.798773 0.245196
-0.00017195052080000548 -0.999312 0.0140024
0.783468 -0.620062 6.77083e-08
0.986702 -2.60417e-09 -0.0791709
-0.974737 0.219923 6.77083e-08
0.9891220000000001 -0.137729 6.77083e-08
-0.00017195052080000548 -0.98097 -0.0956709
0.9141710000000001 0.402846 6.77083e-08
-0.9859659999999999 0.161325 6.77083e-08
0.842265 -0.537271 6.77083e-08
-0.487313 0.110526 6.77083e-08
-0.00017195052080000548 0.982347 -0.0918209
-0.8359430000000001 -2.60417e-09 -0.234512
-0.00017195052080000548 -0.516669 0.0890711
0.9941720000000001 -2.60417e-09 -0.0521726
0.424736 0.262481 6.77083e-08
-0.5174810000000001 0.854402 6.77083e-08
-0.00017195052080000548 0.995196 -0.0487729
0.7847329999999999 -2.60417e-09 -0.247253
-0.99766 0.0511393 6.77083e-08
0.186478 -0.982037 6.77083e-08
-0.00017195052080000548 -0.957867 0.138892
0.402674 -0.914343 6.77083e-08
-0.5021770000000001 -0.863575 6.77083e-08
0.8510390000000001 -0.522632 6.77083e-08
0.721913 -0.69058 6.77083e-08
-0.981142 -2.60417e-09 0.0956711
-0.322595 -0.945441 6.77083e-08
0.336312 0.94041 6.77083e-08
-0.00017195052080000548 -0.818605 0.240229
-0.00017195052080000548 -0.547005 -0.145461
-0.12151500000000001 -0.484432 6.77083e-08
0.940726 -2.60417e-09 -0.161195
-0.844803 0.533612 6.77083e-08
-0.419147 -0.906715 6.77083e-08
-0.215957 0.975601 6.77083e-08
-0.00017195052080000548 -0.864153 0.222228
0.9916179999999999 -2.60417e-09 0.0623715
0.769973 0.637554 6.77083e-08
-0.350716 -0.935379 6.77083e-08
0.985849 0.159791 6.77083e-08
0.386333 -0.317197 6.77083e-08
-0.00017195052080000548 0.689328 -0.242215
-0.00017195052080000548 0.507784 -0.0606714
0.582141 -2.60417e-09 -0.185015
-0.370201 0.335375 6.77083e-08
0.511482 0.857792 6.77083e-08
-0.00017195052080000548 -0.97048 -0.117849
0.964002 -2.60417e-09 -0.128371
0.22088 0.974282 6.77083e-08
0.393641 -0.307344 6.77083e-08
-0.9829209999999999 -0.181854 6.77083e-08
0.9671350000000001 -0.248895 6.77083e-08
0.485864 -0.873147 6.77083e-08
-0.994516 -2.60417e-09 0.0521719
-0.389334 0.313614 6.77083e-08
-0.6002940000000001 0.798427 6.77083e-08
-0.5192019999999999 -2.60417e-09 -0.0956709
0.475543 0.152842 6.77083e-08
0.949344 -2.60417e-09 0.150153
-0.00017195052080000548 -0.996225 0.0418384
0.313741 -0.388941 6.77083e-08
0.524103 -2.60417e-09 -0.10676
0.307172 0.393812 6.77083e-08
-0.975538 -0.216726 6.77083e-08
0.6019749999999999 0.796926 6.77083e-08
0.9961070000000001 0.0757404 6.77083e-08
-0.277957 -0.415735 6.77083e-08
0.340161 0.365536 6.77083e-08
0.25083 0.431788 6.77083e-08
0.9954510000000001 0.0891064 6.77083e-08
0.097845 0.995185 6.77083e-08
0.223429 0.446683 6.77083e-08
-0.017993400000000007 0.499124 6.77083e-08
-0.5366120000000001 -0.842936 6.77083e-08
0.9972019999999999 -0.0534638 6.77083e-08
0.49283899999999997 -0.0798955 6.77083e-08
0.6640569999999999 -2.60417e-09 -0.234512
0.8855630000000001 -0.463331 6.77083e-08
-0.529692 -2.60417e-09 0.117849
0.85762 -0.511653 6.77083e-08
-0.10565000000000001 -0.488406 6.77083e-08
0.406706 0.912437 6.77083e-08
-0.5663340000000001 -2.60417e-09 0.168986
0.319512 0.946421 6.77083e-08
-0.00017195052080000548 -0.573223 0.176777
-0.00017195052080000548 0.733664 -0.249197
0.9723189999999999 0.228201 6.77083e-08
0.5258510000000001 -2.60417e-09 0.110456
-0.00017195052080000548 0.929523 -0.173747
-0.836028 -0.548251 6.77083e-08
-0.00017195052080000548 -0.867849 -0.22048
-0.00017195052080000548 -0.911628 -0.190507
-0.00017195052080000548 0.556748 0.158598
-0.00017195052080000548 0.540031 0.135385
-0.9778469999999999 0.207507 6.77083e-08
-0.00017195052080000548 0.987857 0.0764211
-0.727336 -0.684977 6.77083e-08
-0.00017195052080000548 0.586208 0.188545
-0.397306 0.302865 6.77083e-08
-0.3467 0.936816 6.77083e-08
0.9008210000000001 0.431073 6.77083e-08
-0.00017195052080000548 0.611107 -0.207868
-0.25882700000000003 0.427201 6.77083e-08
-0.542305 -2.60417e-09 -0.138893
0.957695 -2.60417e-09 0.138892
0.969209 0.240618 6.77083e-08
0.544419 0.838051 6.77083e-08
0.558826 -0.828927 6.77083e-08
0.999171 0.013366 6.77083e-08
-0.00017195052080000548 0.503261 0.0383721
-0.995795 -0.0891064 6.77083e-08
0.06665779999999999 0.996717 6.77083e-08
0.511774 -2.60417e-09 -0.0758709
0.558981 0.828813 6.77083e-08
0.49742 0.049008 6.77083e-08
-0.948096 0.315484 6.77083e-08
-0.00017195052080000548 -0.52952 -0.117849
0.770831 -2.60417e-09 0.248968
0.8817489999999999 0.471397 6.77083e-08
-0.0756551 0.493665 6.77083e-08
-0.822743 -2.60417e-09 0.239235
-0.5900129999999999 0.806052 6.77083e-08
0.9991399999999999 -2.60417e-09 -0.0140022
-0.5049760000000001 -2.60417e-09 0.0487721
0.398512 0.300775 6.77083e-08
-0.8360289999999999 0.548251 6.77083e-08
0.097373 -0.490393 6.77083e-08
0.207899 0.977533 6.77083e-08
0.986702 -2.60417e-09 0.0791711
-0.474509 0.156692 6.77083e-08
-0.00017195052080000548 0.85676 -0.225725
-0.00017195052080000548 0.644824 0.226474
-0.634565 -0.773011 6.77083e-08
-0.361963 -0.344464 6.77083e-08
-0.499771 0.00816816 6.77083e-08
0.507822 -0.859985 6.77083e-08
0.926582 0.374649 6.77083e-08
-0.323428 -0.381013 6.77083e-08
0.8550040000000001 -2.60417e-09 0.226474
-0.00017195052080000548 0.566162 -0.168986
-0.9989159999999999 0.0255696 6.77083e-08
0.697451 -0.715702 6.77083e-08
-0.017993200000000004 0.999125 6.77083e-08
-0.6002940000000001 -0.798428 6.77083e-08
-0.00017195052080000548 0.98648 -0.0802709
0.613659 -0.78826 6.77083e-08
-0.49836600000000003 0.0367567 6.77083e-08
-0.00017195052080000548 -1.0 6.77083e-08
-0.358752 0.932504 6.77083e-08
-0.00017195052080000548 -0.611108 -0.207868
-0.844802 -0.533612 6.77083e-08
0.712926 -0.700496 6.77083e-08
0.7269920000000001 0.684977 6.77083e-08
-0.00017195052080000548 0.556747 -0.158598
0.952456 0.302337 6.77083e-08
0.8550040000000001 -2.60417e-09 -0.226474
0.23183 -0.442709 6.77083e-08
-0.00017195052080000548 -0.561454 0.163792
-0.9911099999999999 -2.60417e-09 0.0657714
-0.366786 -0.92963 6.77083e-08
0.12432 0.991258 6.77083e-08
-0.5900129999999999 -0.806053 6.77083e-08
0.548224 -2.60417e-09 -0.147338
0.929351 -2.60417e-09 0.173747
0.9308939999999999 0.362597 6.77083e-08
0.9452689999999999 -0.322423 6.77083e-08
-0.5008600000000001 -2.60417e-09 -0.0140022
-0.051311300000000004 -0.997488 6.77083e-08
-0.00017195052080000548 0.597032 0.197428
-0.7985990000000001 -0.600123 6.77083e-08
-0.9751479999999999 -2.60417e-09 0.108344
-0.17891400000000002 0.466448 6.77083e-08
0.8999809999999999 -2.60417e-09 -0.199516
0.6804939999999999 0.731072 6.77083e-08
-0.012956800000000006 -0.999372 6.77083e-08
-0.7187399999999999 -0.694461 6.77083e-08
-0.00017195052080000548 0.913792 -0.188546
-0.00017195052080000548 0.725496 0.248796
0.203197 -0.978712 6.77083e-08
-0.133488 -0.989949 6.77083e-08
-0.9528000000000001 -0.302337 6.77083e-08
0.6342209999999999 -0.77301 6.77083e-08
-0.00017195052080000548 -0.677429 0.239235
0.556575 -2.60417e-09 0.158598
0.5912299999999999 -2.60417e-09 0.193252
-0.00017195052080000548 -0.985103 0.0841211
0.330245 0.374522 6.77083e-08
0.994359 0.102429 6.77083e-08
-0.03692870000000001 -0.498194 6.77083e-08
0.962988 -0.265451 6.77083e-08
-0.219741 0.44859 6.77083e-08
0.6467639999999999 -2.60417e-09 0.227473
-0.9255549999999999 0.378483 6.77083e-08
-0.957112 0.290285 6.77083e-08
-0.497764 0.049009 6.77083e-08
0.742883 -0.667444 6.77083e-08
-0.661006 0.749045 6.77083e-08
0.440789 -0.235698 6.77083e-08
-0.937576 0.344884 6.77083e-08
-0.44685400000000003 0.223601 6.77083e-08
-0.00017195052080000548 0.774504 0.248796
0.394608 0.918158 6.77083e-08
-0.9559519999999999 -2.60417e-09 0.141707
-0.7192609999999999 0.693886 6.77083e-08
-0.8785430000000001 -2.60417e-09 0.214174
-0.386677 -0.317197 6.77083e-08
-0.447374 -0.893364 6.77083e-08
0.8153539999999999 -0.577067 6.77083e-08
-0.00017195052080000548 -0.556748 -0.158598
-0.00017195052080000548 0.644824 -0.226474
0.867677 -2.60417e-09 0.22048
0.032500699999999993 -0.498395 6.77083e-08
0.9198930000000001 0.390749 6.77083e-08
-0.00017195052080000548 0.902029 -0.198124
-0.490699 -0.870455 6.77083e-08
0.498734 -0.0222768 6.77083e-08
0.6319790000000001 -2.60417e-09 0.22048
-0.292289 -0.405106 6.77083e-08
-0.8711249999999999 0.489695 6.77083e-08
-0.00017195052080000548 0.704694 -0.24571
0.6270549999999999 0.778325 6.77083e-08
0.302713 -0.952432 6.77083e-08
-0.8513839999999999 0.522633 6.77083e-08
0.202259 -0.456695 6.77083e-08
-0.00017195052080000548 0.98097 0.0956711
-0.475887 -0.152842 6.77083e-08
-0.9685159999999999 0.244757 6.77083e-08
0.033921299999999995 -0.998325 6.77083e-08
-0.526195 -2.60417e-09 -0.110456
0.6908559999999999 -2.60417e-09 0.242641
-0.497983 -0.0445536 6.77083e-08
0.09784599999999999 -0.995185 6.77083e-08
0.960915 0.273729 6.77083e-08
-0.7432270000000001 0.667445 6.77083e-08
-0.06241800000000001 0.495629 6.77083e-08
-0.5660229999999999 0.823844 6.77083e-08
0.353112 -0.934398 6.77083e-08
-0.591574 -2.60417e-09 0.193252
-0.00017195052080000548 -0.788371 0.246739
0.8047249999999999 -0.591399 6.77083e-08
-0.228373 0.972491 6.77083e-08
0.35937199999999997 -0.346943 6.77083e-08
-0.549612 -2.60417e-09 0.148745
0.9998279999999999 -2.60417e-09 6.77083e-08
0.5297810000000001 -0.846824 6.77083e-08
-0.375693 -0.329316 6.77083e-08
0.110354 0.487141 6.77083e-08
-0.00017195052080000548 0.999197 0.0163361
-0.0385264 -0.998116 6.77083e-08
-0.7746759999999999 -2.60417e-09 0.248796
0.273787 0.418028 6.77083e-08
-0.00017195052080000548 0.621629 -0.214174
-0.9059550000000001 -2.60417e-09 0.19534
-0.5569200000000001 -2.60417e-09 -0.158598
0.8427629999999999 0.53644 6.77083e-08
0.9764660000000001 -0.211645 6.77083e-08
0.16036999999999998 -0.47296 6.77083e-08
-0.989722 0.136002 6.77083e-08
-0.5733950000000001 -2.60417e-09 -0.176777
-0.00017195052080000548 -0.892176 0.205431
0.484802 -0.11918 6.77083e-08
0.9144859999999999 -2.60417e-09 -0.187761
-0.983897 -2.60417e-09 -0.0879709
0.508038 -2.60417e-09 -0.0623718
0.327913 -0.943415 6.77083e-08
0.326114 -0.378267 6.77083e-08
-0.00017195052080000548 -0.806705 0.243209
0.430901 -0.900993 6.77083e-08
0.459861 -0.195374 6.77083e-08
-0.5289600000000001 0.847522 6.77083e-08
0.25117 0.966695 6.77083e-08
-0.335547 -0.370029 6.77083e-08
-0.00017195052080000548 0.814638 0.241222
0.6319790000000001 -2.60417e-09 -0.22048
-0.94705 -0.318406 6.77083e-08
-0.581186 -2.60417e-09 0.183838
0.6689970000000001 -0.741491 6.77083e-08
0.013193899999999995 0.499343 6.77083e-08
-0.00017195052080000548 -0.517653 -0.0918209
-0.591574 -2.60417e-09 -0.193253
0.47141099999999997 0.164392 6.77083e-08
-0.9998279999999999 -2.60417e-09 -0.00700108
-0.995357 0.098017 6.77083e-08
0.605305 -2.60417e-09 0.203691
0.996764 0.0623745 6.77083e-08
-0.964699 -0.259996 6.77083e-08
-0.00017195052080000548 -0.943253 -0.158598
-0.525134 -0.849816 6.77083e-08
0.48724 0.109444 6.77083e-08
-0.251174 -0.431788 6.77083e-08
0.970308 -2.60417e-09 -0.117849
0.496766 -0.0534214 6.77083e-08
-0.7970980000000001 0.602147 6.77083e-08
0.8358840000000001 0.547918 6.77083e-08
-0.00017195052080000548 0.99179 0.0623715
-0.262653 -0.424908 6.77083e-08
0.217044 -0.449702 6.77083e-08
-0.00017195052080000548 -0.52952 0.117849
0.7608569999999999 -0.647614 6.77083e-08
0.9754290000000001 0.215785 6.77083e-08
0.5176769999999999 -2.60417e-09 0.0923711
-0.23183800000000002 0.442868 6.77083e-08
0.7172339999999999 -2.60417e-09 0.247596
0.500516 -2.60417e-09 0.0140024
-0.09771700000000001 0.490393 6.77083e-08
0.995889 -0.0801957 6.77083e-08
-0.5338959999999999 -2.60417e-09 -0.124864
0.49960899999999997 -0.00445537 6.77083e-08
-0.00017195052080000548 0.573223 0.176777
0.18732 -0.463318 6.77083e-08
0.761377 0.647039 6.77083e-08
-0.6583509999999999 -2.60417e-09 0.232348
0.27355799999999997 -0.961087 6.77083e-08
0.424736 -0.262481 6.77083e-08
-0.00017195052080000548 0.507784 0.0606721
0.8287549999999999 0.558997 6.77083e-08
0.7982549999999999 0.600122 6.77083e-08
-0.620857 -0.783178 6.77083e-08
-0.00017195052080000548 -0.985103 -0.0841209
0.6563509999999999 -0.752952 6.77083e-08
-0.00017195052080000548 1.0 6.77083e-08
0.287466 0.408427 6.77083e-08
-0.00017195052080000548 -0.503004 -0.0366384
0.532951 -2.60417e-09 0.123861
-0.5387010000000001 -2.60417e-09 0.13288
-0.00017195052080000548 0.962071 -0.131878
0.996545 -0.0668298 6.77083e-08
-0.7909740000000001 -0.610404 6.77083e-08
-0.903985 -0.425112 6.77083e-08
0.173816 -0.983915 6.77083e-08
0.7309000000000001 -0.680665 6.77083e-08
-0.494164 -0.073277 6.77083e-08
0.926582 -0.374648 6.77083e-08
0.949344 -2.60417e-09 -0.150153
-0.8800460000000001 -2.60417e-09 -0.213273
0.14497 -0.47847 6.77083e-08
-0.999544 0.0127848 6.77083e-08
0.417856 -0.273959 6.77083e-08
-0.443342 0.895271 6.77083e-08
-0.7501720000000001 -2.60417e-09 -0.25
-0.025741600000000007 -0.998744 6.77083e-08
-0.00017195052080000548 0.632151 0.22048
-0.89188 -2.60417e-09 -0.205779
0.5612820000000001 -2.60417e-09 -0.163792
-0.926949 -2.60417e-09 -0.176777
-0.513655 -0.856696 6.77083e-08
-0.00017195052080000548 -0.646936 0.227473
-0.7473940000000001 -0.662847 6.77083e-08
0.8356840000000001 -0.548251 6.77083e-08
-0.303037 -0.397134 6.77083e-08
-0.159963 0.986021 6.77083e-08
0.7906299999999999 0.610403 6.77083e-08
0.0850611 -0.995813 6.77083e-08
-0.15371400000000002 0.475465 6.77083e-08
0.5760810000000001 -2.60417e-09 0.179523
-0.00017195052080000548 0.916389 0.186191
-0.5079560000000001 -2.60417e-09 -0.0606719
-0.992084 -0.120079 6.77083e-08
0.46727799999999997 0.175942 6.77083e-08
-0.7703169999999999 -0.637555 6.77083e-08
0.348912 0.935902 6.77083e-08
-0.140987 0.479554 6.77083e-08
0.297319 0.40112 6.77083e-08
0.472287 -0.161942 6.77083e-08
-0.00017195052080000548 -0.989235 0.0725711
0.5010319999999999 -2.60417e-09 -0.0245039
-0.849011 -2.60417e-09 -0.229471
0.410691 -0.284354 6.77083e-08
-0.9809570000000001 0.19509 6.77083e-08
0.959878 -0.277867 6.77083e-08
-0.00017195052080000548 0.711629 0.246739
-0.5079560000000001 -2.60417e-09 0.0606716
0.16597 0.470956 6.77083e-08
-0.882093 0.471397 6.77083e-08
-0.00017195052080000548 -0.725496 0.248796
0.23386099999999999 0.97103 6.77083e-08
-0.00017195052080000548 0.758168 0.249599
-0.00017195052080000548 -0.786639 -0.246996
0.020248499999999996 -0.498997 6.77083e-08
-0.9420850000000001 0.332284 6.77083e-08
-0.632323 -2.60417e-09 0.22048
-0.555742 0.831469 6.77083e-08
0.7847329999999999 -2.60417e-09 0.247253
-0.8601570000000001 -0.507994 6.77083e-08
-0.940679 -2.60417e-09 0.161628
0.471225 -0.881921 6.77083e-08
0.6468670000000001 -0.761548 6.77083e-08
0.616948 -2.60417e-09 0.211471
0.303888 -0.396248 6.77083e-08
-0.9326760000000001 -0.35858 6.77083e-08
-0.00017195052080000548 0.51352 0.0802711
-0.8023450000000001 -2.60417e-09 -0.244344
0.8300989999999999 -2.60417e-09 0.23648
-0.156864 -0.474338 6.77083e-08
0.6239399999999999 -0.780635 6.77083e-08
-0.8680209999999999 -2.60417e-09 -0.22048
0.9982960000000001 0.0311872 6.77083e-08
-0.99864 -0.0311872 6.77083e-08
-0.00017195052080000548 0.586208 -0.188546
0.467779 -0.174542 6.77083e-08
0.735589 0.675492 6.77083e-08
-0.251513 -0.966695 6.77083e-08
-0.00017195052080000548 -0.774504 -0.248796
-0.00017195052080000548 -0.567731 -0.170717
0.898914 -0.435104 6.77083e-08
0.161155 -0.985794 6.77083e-08
0.026559699999999995 0.498687 6.77083e-08
-0.484061 0.123507 6.77083e-08
-0.5192019999999999 -2.60417e-09 0.0956711
0.8105 -2.60417e-09 0.242216
-0.495364 0.0651877 6.77083e-08
0.14917 0.476967 6.77083e-08
-0.806224 -0.589841 6.77083e-08
0.650461 -2.60417e-09 -0.229222
-0.00017195052080000548 -0.798773 -0.245196
-0.432724 0.249727 6.77083e-08
-0.313786 -0.389162 6.77083e-08
-0.866738 -0.497015 6.77083e-08
-0.6676169999999999 -0.743055 6.77083e-08
-0.471569 0.881921 6.77083e-08
-0.853577 -0.518973 6.77083e-08
-0.00017195052080000548 0.665879 0.235103
0.539858 -2.60417e-09 -0.135386
0.957695 -2.60417e-09 -0.138893
0.0532485 0.496938 6.77083e-08
0.8519369999999999 0.521136 6.77083e-08
-0.00017195052080000548 0.878371 0.214174
-0.00017195052080000548 0.966276 0.124863
-0.00017195052080000548 -0.502747 0.0349046
-0.41108300000000003 0.910529 6.77083e-08
-0.488397 -0.106199 6.77083e-08
-0.264494 -0.963443 6.77083e-08
-0.91493 0.401969 6.77083e-08
0.872576 0.486701 6.77083e-08
-0.5121180000000001 -2.60417e-09 -0.0758709
0.7051000000000001 -2.60417e-09 0.245796
-0.146725 0.987985 6.77083e-08
0.858816 0.509657 6.77083e-08
-0.434253 -0.247176 6.77083e-08
0.9702459999999999 -0.236479 6.77083e-08
-0.350695 -0.356299 6.77083e-08
0.983231 -0.17744 6.77083e-08
-0.398986 0.91625 6.77083e-08
-0.00017195052080000548 -0.522527 0.103064
-0.5763039999999999 0.816219 6.77083e-08
0.678482 -0.732895 6.77083e-08
-0.499296 -0.0178215 6.77083e-08
-0.00017195052080000548 0.774504 -0.248796
-0.0800675 -0.493011 6.77083e-08
-0.00017195052080000548 -0.535827 -0.128371
-0.9387179999999999 -2.60417e-09 -0.163792
-0.00017195052080000548 0.867849 0.22048
-0.317369 0.386505 6.77083e-08
-0.199579 -0.458126 6.77083e-08
-0.681001 -2.60417e-09 -0.240087
0.53145 -2.60417e-09 -0.121356
0.6214569999999999 -2.60417e-09 -0.214174
-0.9633320000000001 0.265452 6.77083e-08
-0.00017195052080000548 -0.608292 0.205779
0.294313 0.955437 6.77083e-08
0.982577 0.181853 6.77083e-08
-0.617292 -2.60417e-09 -0.211471
0.0722761 -0.996441 6.77083e-08
-0.813849 -0.57956 6.77083e-08
0.6879660000000001 -0.724298 6.77083e-08
-0.989466 -0.137729 6.77083e-08
-0.049181 0.497592 6.77083e-08
0.277613 -0.415735 6.77083e-08
0.9871589999999999 -0.150966 6.77083e-08
-0.617292 -2.60417e-09 0.211471
-0.73617 -2.60417e-09 -0.249312
0.5076130000000001 -2.60417e-09 0.0606716
0.5030889999999999 -2.60417e-09 -0.0383719
0.610935 -2.60417e-09 -0.207868
-0.7054450000000001 -2.60417e-09 0.245796
-0.46486700000000003 0.183642 6.77083e-08
0.660663 0.749046 6.77083e-08
-0.286318 0.957977 6.77083e-08
-0.00017195052080000548 -0.973977 0.110456
-0.778265 -0.62754 6.77083e-08
0.5224610000000001 0.851212 6.77083e-08
-0.8091440000000001 -2.60417e-09 0.242641
-0.00017195052080000548 0.974976 -0.108344
-0.673751 -2.60417e-09 0.237858
-0.00017195052080000548 0.873861 -0.216876
0.5999509999999999 -0.798427 6.77083e-08
-0.00017195052080000548 -0.951604 -0.147338
0.9027959999999999 -2.60417e-09 0.197428
-0.9982880000000001 0.0383545 6.77083e-08
0.707989 -2.60417e-09 -0.246225
-0.89188 -2.60417e-09 0.205779
0.46719299999999997 0.883828 6.77083e-08
-0.00017195052080000548 -0.902029 0.198124
-0.471754 -0.164392 6.77083e-08
0.215613 -0.975601 6.77083e-08
0.9218 -0.386715 6.77083e-08
0.990766 -2.60417e-09 -0.0657715
0.74705 0.662846 6.77083e-08
-0.499953 -0.00445537 6.77083e-08
0.0811944 -0.492793 6.77083e-08
0.118949 -0.992055 6.77083e-08
-0.33063 0.942566 6.77083e-08
-0.00017195052080000548 -0.961471 -0.13288
-0.00017195052080000548 0.718562 -0.247767
-0.08482300000000001 0.995842 6.77083e-08
-0.454483 0.207471 6.77083e-08
