-0.14884999713291508 -0.8007084214836209 0.23875574548735923
-0.25190610850055484 -0.4331803215360333 0.08766660530098859
-0.2673591934336713 0.44016997286832243 0.007113700541526957
-0.46201917224742245 -0.8711421359883547 0.029724226666706908
0.5424876841096092 0.6669684650834323 -0.23504664294531116
-0.5988696643297411 -0.08641595266191233 0.20797834294561293
0.6441313788867865 -0.42936055957450453 -0.2501536656938698
0.8850238571648454 0.4983114378581971 0.03450773157244017
-0.01541224154738086 -0.7997678164180352 -0.24307951080488635
0.7208284165341271 0.3036806328913999 0.25062346522930146
-0.9256499480403727 0.36142171198169903 0.0779222386199362
-0.8118699329303319 0.18878999960766207 -0.23800426742961311
-0.6616125491805671 0.291381341413483 0.24891025621679594
0.7614957531932789 -0.6214964976293735 0.08545774268868186
1.0 0.11617971492121555 0.053924435712410256
-0.707476854576421 -0.6625088904783606 -0.09886634454715652
0.5277367834928338 0.8675899686230247 0.05659686069286882
0.3726898588690004 -0.5861830648836417 -0.24701697414895366
-0.7837805482872438 0.6393468679863307 0.013411720442114559
0.45675781984847713 -0.20407005344849963 0.012711045117857311
-0.43589248330803265 -0.6395561148886214 0.2484565525969251
-0.44351691731025183 -0.23023597618206898 -0.06810342832941499
0.23003175925339098 0.627493232170504 -0.22902878251500694
-0.6170691148554235 0.4476294237360432 -0.25142423702845257
0.3394749311145114 0.5432049583467886 0.21447505686385168
0.09828749518380027 -0.5038393788586185 -0.11251044977018053
-1.0 0.029813558998069506 0.0074301462414528155
0.23339580560560383 0.973223438469842 0.10230463330989367
0.8302283306221776 0.24454021514203142 -0.22956397170740447
-0.1277482518326709 0.9878475837515759 0.10917356527547657
-0.4633782711175898 0.7401254073021133 -0.2271526023574481
0.4679646010577029 0.30563125665842766 -0.14057971451881762
0.04078322725118983 0.7500575931978661 0.25047256602091866
0.00033841662466637366 -0.9878475837515759 0.012720199669832531
0.6458335219573439 -0.3782248418324798 0.25142423702845257
-0.09658052333857459 0.8814787317625733 -0.22291635858078293
0.84141800992112 -0.06951383293043245 -0.23584741474446227
0.1112509443775458 -0.5835071189216543 0.20598949137912825
-0.5081138504347407 0.6659946621920022 0.24054943407766885
0.05538524064902755 0.5187009388948747 0.020008027837885963
0.3976375219935597 -0.9081979515935462 -0.005806762497723941
-0.8597643356762952 -0.4604095806913398 0.09153143582608766
0.9654521292381303 -0.2653472039885679 0.0464804771634168
-0.43678077664804577 -0.5895863450300342 -0.25139808116566625
-0.4488175035033767 0.9096365240467948 0.04394396206997498
0.5999591566142645 0.017290031357896515 0.19436522236004355
0.7931835809589344 -0.06463707231391864 0.24824428771046672
0.48041277975455743 -0.709090470111394 0.22391531134027673
-0.5005457521369844 0.1773256837494631 -0.11408583750569647
-0.8924973919586818 -0.26009691753157066 -0.16983504704534322
