-0.8674396750123768 -0.21165846654617648 0.05264506999665012
0.4091298517654057 -0.4898070805957053 0.4471909934711955
-0.15365270159302047 -0.1839118873255025 0.2802227718614158
-0.7569915126529558 -0.4165672737621508 -0.03540732645109524
0.36157738762837494 0.3456911570124618 0.2677570735303273
0.2598151934283091 0.108826089921016 -0.3206802130878469
-0.546889899671633 -0.019047962552508624 0.1878125688627311
0.3388209415826644 -0.02282324598286326 0.34207892076598584
0.4890466878199801 0.3772452338343658 -0.23910622474621465
-0.29141472582874917 0.02267591061852195 -0.29162619308541604
-0.10012678153752513 0.16489949870402193 0.16772713213837867
0.7256528557467216 0.22144327390839913 0.20385542359164294
-0.4925813531335199 -0.2461809902794234 0.2879077291282312
-0.9648707431097743 -0.6113098420221014 0.3599785370616131
-0.9054642546223879 -0.33240132927922283 0.17605933731695486
0.3344611587022235 -0.08984028293133148 0.34180519913001983
-0.7937057858034324 -0.4373928458848374 0.15635434402165269
0.26090513914841934 0.44950972205890055 0.07308802472783474
0.7394387421848521 0.4967064468856507 0.2167974173326074
0.9385964305512873 0.43392241128009834 0.0012622816526462505
-0.5360418270375711 -0.04602021587447148 0.23140348051388526
-0.7954657072245714 -0.5610083035484008 -0.34293368327541046
0.3076305093890474 -0.3425349587984708 0.27549341536418326
0.26895670553777407 -0.45001072158754607 -0.5256196534110954
0.18898650858665758 -0.508643477075072 0.42940501612190796
0.9166008713636773 0.49162135107813715 -0.10901374240718913
-0.886494455901666 -0.2265214525626571 0.05435301395189812
0.7351451663427133 0.0452841319516155 0.021058976636820798
0.3566622561579957 0.07762281158563882 0.34060754345207456
-0.5335022436280668 -0.2787953678789143 -0.2670722753580368
0.7418241718932347 0.21693131365633805 0.1652122528476438
-0.5720139884602121 -0.10992859521510867 -0.25031102485530804
-0.9728946408861073 -0.5461354358844125 0.30674807826660094
0.4521001959530701 -0.43790076256673827 -0.5703192859126246
-0.8642824886336352 -0.4126897152800904 0.023478201579680166
0.03850431383321948 0.09265576193925355 -0.3018171361602092
0.2664922226493289 0.0014007235342305096 0.34398311424073874
0.9514267616754135 0.4542252442496223 0.019115355388511793
-0.9345004876593047 -0.4460639915729311 0.2148932238578545
-0.9734183682040206 -0.624898095510076 -0.40402598082762753
0.547670549824749 0.34963591069757516 0.27729088704585186
0.9166305163062006 0.4119298165867406 -0.0709375805971875
0.23498162507645923 -0.46096848050894446 0.3816144042799392
0.39359787821264713 0.3190344246954229 -0.26928675256453466
-0.6677345433740096 -0.0427600627286984 0.038373895849411595
-0.9290379129169934 -0.41001969412348316 0.17563739096837183
0.23372566767821798 0.40751074382125296 0.10925841199948222
0.2663538795842198 -0.48401149433238116 0.35942220030692407
-0.8370575615848979 -0.4666425225079227 -0.20971622872851856
-0.7139895471932665 -0.4254795316494348 0.20778831929974695
-0.9251277449981573 -0.5005266918121658 0.3439445758154583
0.7657051494253329 0.336513082807218 0.045011200847450084
-0.48353668116963144 -0.2866354670116021 -0.24780405088257937
0.30270549627116033 -0.5433616574289732 0.5701562387287459
0.32133437815286314 -0.5338011634651777 0.581783973351173
0.12358146479613663 -0.3880972591274308 0.006345302314183025
0.010091533700864692 -0.12193211901060996 0.30373911660047614
0.8711067544025212 0.4114485803531109 -0.03545446190970744
0.29560157987780356 -0.3668774092691831 -0.3903270528875657
0.529450768149869 -0.14611992169782517 -0.300291409785005
-0.9140593116246716 -0.4403632691256818 -0.19204389032557068
-0.06834246232868936 0.2207742863721211 0.009424127228187987
-0.9884187091208596 -0.6496298828925955 0.37627732646097695
0.2762701128582961 0.061458412592381044 0.35585986638036243
0.2921845061696066 -0.33378179543606235 -0.27875337087700613
0.4840663374760494 -0.40293554102514195 0.5137349959534654
0.8745771890072601 0.6240383921768974 0.03313514042315191
0.5361505251601568 0.3342887239532124 -0.2693094803538026
-0.746807486731418 -0.43800550803032096 0.17214422857436484
0.4823271675146767 -0.2215579010194896 -0.009671277114005563
0.4525705623744413 0.589607767765473 0.046136127599737946
0.9999634379042212 0.526844483619687 0.0107014289850461
0.08822828977338414 -0.09429552252669778 0.3208116389997006
0.9195880934052849 0.52028504600401 -0.1013250301143208
0.7556742890401659 0.3013591217982227 0.024050546603331894
-0.4529707690985073 0.0635898839598133 0.03191100192988576
-0.06648668892672469 0.018683725025371113 0.3354354891464925
0.47498806791063436 -0.25605769696346853 0.1636924554609443
0.2975472762720892 -0.18722055936053886 -0.2810044101792828
0.5298302234141685 -0.3741038580916365 -0.48964452749420206
0.7084538482593973 0.6487069370153671 0.043721250581781994
0.5075283331538167 -0.21307944745779803 0.16480216447607013
0.8096784808350388 0.47295985975965865 0.18596074811976954
-0.12208182597035314 0.17034823913982236 -0.03774058106063677
-0.807837529904336 -0.3935578575402406 -0.2784401226510089
0.20565783609706542 -0.5490860958302413 -0.5645503800975715
-0.017239028159730965 0.2591229840203878 0.04845376920621714
-0.5511607477245037 -0.007950378318874851 0.1665452870964459
0.38408481615688894 -0.5192593309927005 0.4852916617670165
0.34886563627434225 -0.30149845302808276 -0.010471403994359562
0.3346765786178935 0.060334869270744294 0.34206212196522257
0.24149363078409883 -0.27715501439261964 -0.23945998772699384
-0.07607386333879136 0.08378303064200075 -0.31394982297028495
0.7353704679058912 0.1319857071850447 0.030858310020879923
-0.2274725611352828 0.153701615748184 0.009098625759281088
0.17225095036744903 0.3751374784209523 0.0424690482095937
0.7461128069116195 0.4966649439661178 -0.14610509922656348
0.2970690045327117 -0.051884578404449926 0.3457805859224074
0.49196770282328556 -0.12515304201577707 -0.30148807729819954
-0.013411767263485292 -0.10672765290120233 -0.30515713301784536
0.2756248412760369 -0.37289335627193115 -0.3081759763314779
0.42030895959097886 -0.351742677946238 -0.4588483730361461
0.3308395348906151 -0.5030692397159224 -0.6011549669607116
0.3158737797400534 -0.07373962056449902 0.34346432774657926
-0.8956448614938878 -0.3975806762406656 0.2963881590194244
0.3762032141046684 -0.4449878801593318 -0.38301463373179434
-0.5775793323366046 -0.06328592448247344 -0.2034532405380755
0.6715873977373004 0.23880434041485135 0.2740022747552563
0.3864653050415177 0.10231210788387482 0.3357517018667421
-0.9324431286481809 -0.38173051363815586 0.13431925824401147
0.2828453611099857 -0.3894125064107189 0.32304884399546635
-0.12652362652510885 0.164611942761545 -0.07037788408234576
0.1967663296695478 0.3941240759424374 0.0473355619742346
0.17017876888506356 -0.565421447325384 -0.49829986254628317
0.17399901381157867 -0.5225598012603054 -0.4290403833288702
0.25320832390459463 0.4356250191456921 -0.036890858191441125
0.7214828004984304 0.4081797313575309 0.18730465218083023
-0.8639069860283388 -0.46744491228555596 -0.3582670357132623
-0.49287384989975086 -0.22313204746748203 0.29716979733729126
-0.1488126706437005 0.18744250116356403 0.005396762969909391
0.5091983315826347 0.31090578145550746 0.3257702497191142
-0.08737253909920885 -0.001966941936427429 0.3495682214121468
-0.892120077827856 -0.538697519805292 0.25004916119635134
-0.6016401558533446 -0.0014748358905390358 0.034109470867420895
-0.09556244855367271 -0.39286811854419623 0.050924576349067226
-0.03765520362616942 -0.2231616924100054 0.23639667699957612
-0.833473488033819 -0.48673388822077984 -0.23448260187731543
0.3895068761444183 -0.4474464340592722 0.39169664923214664
-0.8876199755528044 -0.6053531849044 0.3751676174458511
0.011951951477158025 0.2753970693009822 0.05003285647796344
-0.04608800397637502 0.24805949147065598 0.04579017112048989
-0.581268151351266 0.011726057015129781 0.033413901699346917
0.6839167293327814 0.6444024913609697 0.04245620206783356
0.35703182977478737 0.3916131493107058 -0.18412671434232203
0.7315452821556223 0.021502959059346204 0.019764876079199425
0.4693486116779334 0.35309843998430795 -0.23817932620998306
-0.6762021271234426 -0.40736647176763907 -0.027382667787904283
-0.9160702268925087 -0.4534781916980328 0.32696000007905324
-0.023472667857075868 -0.2785493148559701 0.19513981048976412
0.5075876230388635 0.3937090467471099 -0.23469308096923155
0.5320832390459467 0.616079713274116 0.03763010424149956
-0.8229376754610037 -0.41648229159358374 0.023211594729919748
0.465502674467898 -0.25315545709042797 -0.1852304943689432
0.24746807486731415 0.4426093676042045 0.047636754590272314
0.35328174454557765 -0.5532897486800591 0.5302699567282656
-0.7849625040885319 -0.48686531413263356 -0.3593204193375937
0.6802921410269206 0.22025549987796164 -0.17947739918990258
0.2056736467330779 -0.5776480097867838 0.493806677424487
0.2827663079299233 0.48403224579214754 0.06467350542551857
0.40682248707233465 -0.2920901364359072 0.38869954554303116
0.6177502057853094 0.2675401713675311 0.306460522324124
0.15147478648230145 0.34848074610391344 0.0409303768761543
-0.8515460331608328 -0.5738376465077765 -0.37327330561860605
0.24637417648820079 0.44065477772716183 0.022063742555413806
-0.5836634627071565 -0.029945641057059623 -0.14733141168228134
-0.7243198214979196 -0.37376590574686985 -0.26709006232355087
0.12338076853525323 0.29662976530099006 0.00730658898374172
0.553686496827497 -0.31728537308654253 0.39506431470280456
-0.39265418087565246 0.0889165465223024 0.029745636511501743
0.21764921534777962 -0.5718040034506714 0.513984013470662
-0.8472208360466693 -0.552742305408127 -0.36243017380829806
-0.7166160891008395 -0.33434208484975453 0.2504552969089219
0.8645255771623268 0.394229809570771 0.011143237445119795
0.7891286066778197 0.596463654806384 -0.08652449611008949
0.5026784205569891 -0.3878097031849539 -0.3615052516015681
0.8643981039094761 0.4173499002447685 -0.057595973031007636
0.3823703503142858 -0.07352163142047698 0.3131662083229165
-0.9219972390676865 -0.47759435244081644 0.33571909242996634
-0.01078097624748394 0.2152899720052926 0.01151192171363578
0.43594469044256934 -0.44744248140026904 -0.5852089523773762
-0.2961292598547201 -0.39691564136339075 -0.006629794945932572
-0.9405905470183613 -0.4027665648527586 -0.1665591214029568
-0.7816323888784035 -0.5434535567507959 -0.3337190469743878
0.6689410925347118 -0.056581819547282225 -0.008691165905944508
0.7553274432126422 0.661417700204649 0.04403252247827767
-0.040088361692014796 0.07101791839142588 -0.2993645112487735
-0.0025293064960963123 -0.3504768389004889 0.11667656478358698
-0.851114205164742 -0.3741888402602036 -0.23844711885744443
0.014002788600926647 -0.3781731205353482 0.06454543927381749
0.369533102036904 -0.10706701832156268 -0.30577770048133507
0.3947372321702964 -0.29421765514433634 -0.19883752298718255
0.7094449775044294 0.22384154975854192 0.22963071295098608
-0.07345720307872616 -0.06332910728208253 0.3204746748196847
-0.12437041553315942 0.19263036610515852 0.006394414102296787
0.3181702746208659 0.4259538507298092 -0.1838282885875865
-0.34239019266248155 0.10734878361860004 0.023241042039492992
-0.82872338007682 -0.6245492733530507 0.36181553533331295
0.31459608271729494 0.04703515988999749 0.34538532002209543
-0.7612257986100476 -0.4631958038572024 -0.23432449551719065
0.3236032044206538 -0.31635353372655706 -0.011700315323371981
0.7775789370707042 0.6547960082096729 0.03896718996577985
-0.8168150066651715 -0.4301752905451409 -0.30647830928963804
0.2166363464782302 -0.03007005099918281 0.3367023163569924
-0.5813758613091009 0.012531411287015402 -0.019410136791646458
0.09619764085547394 0.2784406167333843 0.009342702452723723
0.5961311373677465 0.3510667732567045 0.24391166992925728
0.8981933383861491 0.41301877414210014 -0.08666026994684664
-0.3136919119703314 0.11933423388080956 0.019695902179594986
-0.7618295672727743 -0.4870273731517615 -0.2866754876840087
-0.8276531976517254 -0.34243317782914046 0.23446185041754902
0.8712796832339077 0.538490993372379 0.18698942762533144
0.6826133400265025 0.3841831385495916 0.2119969129733186
0.30074893006461606 0.24438747125675783 -0.2736168905024522
-0.5154277221715514 -0.015940974943106433 0.21123899060947038
-0.9282256414918523 -0.394247596536285 0.024388498948098622
0.1509056035858522 0.3121439518882347 0.00909546363207859
-0.747728456279145 -0.4572253124329902 0.21511753725628155
0.5899274390623502 0.458765861279456 -0.20500564736155075
0.7405543801884825 0.16753295776485042 -0.05583279066619104
-0.4738516784472376 -0.046515385231087295 -0.25172904127267715
0.4326738651174879 -0.19382209279459914 0.34296826904168776
0.4413746557481049 0.3238487633612227 -0.24601942534267085
-0.04965023908646151 -0.14115755595235863 -0.28186016085345816
0.8415220899289215 0.3862750833269926 0.019408840319493425
0.3742772810053983 -0.2860682604446544 -0.007572306485226448
0.7408775100619875 0.46576898486823326 0.21789131571172077
-0.9658885528030777 -0.5172563210428696 0.28831979382930645
0.7325828551439412 0.17431077979044976 -0.08335792216621526
0.5611481288606363 -0.2134934884883748 0.3149666444988375
0.25337730007697806 0.4112786160159767 0.013645270594094525
0.5953050316360946 -0.15923662296672753 -0.25398897405771087
0.007947611457572602 -0.33463359345123467 -0.13903478043473322
0.2289281278131815 -0.35878829261929873 -0.018509720280204006
-0.8533346113597445 -0.6264337035327879 -0.4264464508580729
0.9244320770136081 0.5417094459656693 -0.09190930228651444
-0.771775445489374 -0.4397229383671764 0.1652913060277062
0.5459946224074262 -0.21938492673252458 -0.17778664930131813
0.5620147493470702 -0.2326263343929754 0.32967745314369795
0.9272453820590785 0.4350212504829656 -0.027498154602327927
-0.9442793660330226 -0.37734997929794856 0.029236632848375015
-0.49199438327155665 -0.2673711951951478 0.27736895206116347
-0.03487816422705266 -0.02933337417747639 -0.33034841700947754
0.3912183774927691 -0.3438561350702635 0.43433497006354893
-0.5670751410358142 -0.13671091339032412 -0.2675218903196417
0.3046828139374709 -0.4200643888151609 -0.4954984154778222
0.4558236007340088 -0.4767514479084012 0.5796119872289589
-0.4793142531895489 0.053433526651297414 0.031168297303199578
0.2848819686613431 -0.3547585567656183 -0.29547805928395615
0.0628542941193327 -0.3925499294944451 0.013346746022883915
0.04117723031254658 -0.11225333184449848 0.30999518763766376
-0.2832732364470735 -0.20763169518674837 0.27706756181217557
-0.5743697732260715 -0.08488256156019358 -0.2291781334951289
0.9315893543035071 0.441386019642739 0.04726599517577968
-0.836913289531284 -0.5634312835173133 -0.3220843951987052
0.5622074414734722 -0.38380862410904604 -0.37372884956871555
0.8781296412863139 0.4239528171094798 0.10649846785055395
0.26464435456537055 -0.2928391653169984 -0.24023668522110683
0.3656367684245788 -0.4589447190993472 0.3891175392326111
0.3914496080444516 -0.5248385091756038 0.6113577680125142
-0.08858106458941267 0.019219310320293826 -0.28141943937461034
0.4798943058982566 -0.3932337395019848 -0.3579982549010502
-0.3105228676145803 -0.21304881435052384 0.27435504957128476
0.24131180846995534 0.3882929157480852 0.014888579483525807
0.34303842873899304 0.3540273148500411 0.25241482760971845
-0.9530226477479232 -0.4171888293903913 -0.22025401763083552
0.03606311210630276 0.2930140704778864 0.05034274494380801
0.30097027896879075 -0.2130784592930472 0.295581816582788
0.39608508889036015 -0.13849198153712983 -0.3076314975537982
0.5315693933755412 -0.1935281137812421 -0.006947983995683702
-0.4669809689350649 -0.39738996044376507 -0.02707492363956889
0.4405544790049576 -0.2472225159267454 0.15823284521288528
0.40640943420650866 0.20188255266671082 0.31641430585873004
-0.8112842485550563 -0.5573580229590199 0.3342417861275504
0.6541265265910194 -0.07676350351836062 -0.008517288436397276
-0.2635217994084847 -0.39637610340946494 -0.0008320347201566894
0.5143130723326717 0.34669513239925415 -0.27078382216196617
-0.09821369458001523 0.13280983658719517 0.23187285877050565
-0.946204310967542 -0.2793843140703791 0.04333300065120056
0.39427773556118373 -0.312070827696677 -0.3931798845230673
-0.23267623671288978 -0.397435416022301 0.0050547591496644655
0.839844186182097 0.40493756281022203 0.1350860740906167
-0.8909194576556584 -0.40400671161498736 0.11402630692199528
-0.8033621317480538 -0.3408916408179238 0.24211617457709023
-0.08294852550996717 0.10143362942043148 -0.2990374287162654
0.3052500205044186 -0.48258260810275344 0.36858841653515845
0.21631815742847907 -0.4675625038908988 -0.3820926760193167
-0.2018316621820457 0.04094015970718701 -0.2892219882467685
0.2767414674444182 -0.20358318420280308 -0.2758778114522366
-0.7526238244545085 -0.46426598628229704 -0.2694507879131641
0.7891819675743619 0.46996670872954627 -0.13477084953511792
-0.8103030009575318 -0.410635320763219 -0.2947072907783478
0.41326433308266886 -0.28156420551059963 -0.1913086957509904
0.2517883311577239 -0.41406425244842526 -0.3400907332874167
0.11755425271522967 0.13896511481980323 -0.3011886633787132
0.41775257738071125 -0.4596433515781486 -0.5985946320914408
0.8106211900072829 0.6492889660535763 0.09736980188284913
-0.6291704258100729 -0.40371520301350733 -0.022048752096144486
-0.5002969435076094 -0.15650059240476813 0.30249501717924426
0.6271446880709739 -0.106089930897639 -0.0055709764154719
0.9758166440541634 0.45882910382350595 0.010640063954022668
0.48522051390496035 0.3589246593549063 -0.2586185259151147
0.8030567888400627 0.6339457319682168 0.11536625832405283
0.4028075736899159 0.11972159446311526 0.33335836684035314
-0.2496202976945129 0.1455373985772404 0.01142041765771356
0.0706862903010641 0.32022615138486354 0.05393264866691634
0.0011707775967239812 -0.19647333882094162 -0.2503900780353704
0.5244644888174336 -0.23024288101409426 -0.18077683583717813
0.34165796258215353 -0.009603676763404715 -0.2975917436858743
-0.11335040223246189 0.17473470246853437 0.022738362630771253
-0.9290161732924761 -0.5229362920303526 0.35055243350392357
-0.9371309822258809 -0.5451196025206108 0.3611287608315209
0.7026276288887988 0.39486025868176844 0.19543724807974885
-0.6053635606342833 -0.4042843859099565 -0.021842531994304228
-0.004668090282684344 -0.15804104243475894 -0.2779262769806034
-0.5892969899513527 -0.008126765726889062 -0.059904227072354425
-0.10627810711113007 0.17653118598545223 0.09424423677613228
0.5626689144120864 0.2903282386852666 0.32635919591057905
-0.8810052007110837 -0.5736716348296453 0.29285843452963856
-0.7986614320285936 -0.15705594099470643 0.04719959050452728
-1.788578198917127e-05 -0.3146193045889384 -0.1622813561968306
0.008521339911875416 -0.3679001597862403 0.0872341960340996
0.8922771960232297 0.42137864793369817 -0.04387204452275102
0.5899323798861041 -0.293891560776579 -0.37563501937297
0.2809965048612765 0.42857545181362816 -0.11088127496968807
0.4804733704422136 -0.3663546701160205 0.3015236512292276
0.7370108213921859 0.2549292128180779 0.04494084351719456
-0.652786575188962 -0.40436343909001893 -0.02601525528742255
0.9273866896184401 0.4268797611012899 0.12253045276720717
0.9681880121781425 0.5866057232526036 0.062461103364997425
-0.5556104535972657 0.0009105938178436644 0.14467818932643728
-0.9152362158428504 -0.3898008551577754 0.11840091227369792
0.31268299575978503 0.4637471997881376 0.007435840933143732
0.8003956611662124 0.6490537828428908 0.03554033342655021
0.6718275217717399 0.5008765021339419 -0.18066319689083848
0.39215120501750533 -0.4251623307644345 -0.3631594393943737
-0.753250320906503 -0.11768676560830932 0.04791423125229131
-0.10265450697002014 0.17552226977490595 0.11782580038874402
0.233065573624697 -0.562175326119072 0.5322472743945763
0.2943940425523505 -0.3083464347509875 0.18509906845708946
0.39816616385550263 -0.4176878525895352 -0.3401628693142236
0.5581006287692308 -0.1878167191546844 0.1827462481854825
-0.49364066574635607 -0.3711344230155429 -0.13889149654587013
0.19933654618632632 0.19731821968285845 -0.262105759320617
-0.9815213191604159 -0.6639760587444182 0.39599516589803924
0.39814640056048706 -0.13472756791903379 0.33372596412764327
-0.48624227625726685 -0.3114087573136544 0.2465056024000546
0.39368187221646345 0.3693043418970985 0.2885174267794624
0.5521508888047852 -0.3429766684420694 0.4158780288484818
-0.8084669908505828 -0.563310727417718 0.28705593111305894
0.3138895449204873 0.5042767770413755 0.05439639438445736
-0.8751829339994884 -0.3805545975847278 -0.2364806710033924
0.8536162383137167 0.6357570379563963 0.03321725691394172
0.48602982083584906 -0.302691167882274 0.22955363610042523
-0.3814157831650325 -0.3980411610145291 -0.01844436207542267
-0.11348083997956482 0.11119570899338621 -0.1928403511146993
0.45310812399886563 0.3506922588161589 -0.2574692903099577
0.5562685713212849 0.6180659244231836 0.0364221716501462
-0.8153969902478023 -0.5684126220259947 -0.3320727644995885
-0.5259576057558621 0.005894896820777533 0.16972026044070174
0.7444082227165242 0.1646959367653613 0.09550217050387509
-0.7378082703460653 -0.44165381229020034 -0.25055806604300296
-0.9548309892418505 -0.4633272297690561 -0.33857686488922184
0.4503926472637224 -0.3571449746387518 -0.2896834611853827
0.388390249976037 0.29700922056528956 -0.2609229261139335
0.522981253526513 -0.38960519853712094 0.36614567327123054
0.5460104330434387 -0.33410393714481657 -0.44651805327591443
-0.5349637392944703 0.034083284501525216 0.036533439001084016
-0.07864309169081912 0.0573140496276101 0.32237293930593286
0.8513572936934338 0.5251418757540932 0.19876439879562482
-0.7266370678384985 -0.10217694670926318 0.0474217299405026
-0.7324761333508569 -0.4406686120336728 0.20745926043773724
0.6195585472792366 0.36161839646553234 0.24017838350081083
0.9440066325618073 0.46078468186529936 0.1099234468767571
-0.523911116556997 -0.3217844871968435 -0.23580081365485583
-0.8084412985670625 -0.5833665191995471 0.3347566199627067
0.6457300907036426 0.4855886052746259 -0.18739655150265275
0.3223600931641727 0.02482220445721592 -0.302047378547141
0.8432158043117582 0.42666730567987227 -0.07494448984512495
0.01921486357891528 -0.38484718526211575 0.04059370914556359
0.28110915564286537 -0.22805409609111674 0.28993445503208076
-0.817705343105624 -0.1725948317007205 0.04987326787071247
0.595792196858229 -0.2788398352926994 -0.3557146061619978
0.9424799180218524 0.5817913845868039 -0.04830989241850359
-0.7736845797878806 -0.5087571160214116 0.2502606284530182
0.18667716756408492 0.21384823963390473 -0.24661430052264038
0.5535936093409239 0.43207948401989377 -0.21424103512233977
0.8577892580562603 0.4145425241878028 0.09010086197611211
0.6454702033741874 -0.12443454742548499 -0.0075579780963401415
-0.49739173914031654 -0.38503296023526234 -0.005613072233855122
-0.8271630679353386 -0.36856519466351517 -0.24367451038907015
-0.4476297386205419 -0.03809444285789106 -0.2591550993747882
-0.530200785195711 -0.06147135755061629 0.24890387825019739
-0.7172811239781143 -0.42753787882530936 0.17462254576932085
-0.44045368620037817 -0.39863998885350166 -0.02574181033758673
0.8210324938214999 0.3769863346696615 0.027262674942217065
0.4848114136981374 -0.46712277057680174 0.5501696184794714
0.18590738722322736 -0.505814361393589 -0.4150904615421102
-0.4800286963043628 -0.3540134805435302 0.1991487948836782
0.6615881586241584 0.636557451404528 0.04524134441790673
0.5020608175877515 -0.4022626008298608 0.37259048377581705
0.4511337708268074 -0.3586637838607004 0.4411108157596468
-0.12362533931107136 0.14179126600703376 -0.13946957292507636
0.24002126530543677 0.4033001738181797 0.1318004262942735
0.9795321435170958 0.5252031419686416 0.028321394656202658
0.6460670548836585 0.2530734394161132 0.29500966919208643
-0.029937735739053416 -0.25071172566174926 0.2156462053979488
0.5308559384254781 -0.20112789124654024 0.16788919115750656
-0.9707305600818992 -0.6056061550805998 0.33469041292440443
0.9353335105442121 0.46699727365345267 0.04362174239137846
0.896457132919029 0.40482491202863313 0.04035111469924712
0.18417908707411332 -0.5531010092126601 -0.5512625286938341
0.01224583167403997 -0.34761610194698106 -0.11973691101675238
-0.4885644634215996 -0.3814775434619562 0.045728904905941545
0.8003630517294367 0.36810075723064856 0.03599054128700553
0.5624475655079118 -0.33067500545961026 -0.42962241236707954
-0.8452484592041125 -0.6507386037429705 0.38322412465895966
0.2263855799094248 0.4118981953147157 0.0850454111111221
0.7294879231444984 0.6639760587444182 0.044704968591183405
0.8975421378153852 0.6142130700598928 0.03359305596866332
-0.32262689764688335 -0.4018189148567607 -0.009536738483186877
0.9746347990122306 0.5944142011132665 0.018127388270682037
-0.9973714817629256 -0.6136152303856709 -0.38133475365546854
-0.4873262929888724 -0.35705109898742765 -0.17354248169671843
0.5257491029934476 0.33146257276598184 0.28220008952772646
-0.9246692365537954 -0.34258930785976366 0.14481752055629724
0.23292031340633235 -0.5440840058617934 -0.5707491375792139
-0.09049118705267023 0.11733715291948334 -0.28272678133989215
0.8102101134709585 0.5068973899604438 0.200752586274194
0.997809238747521 0.5019308739230239 0.013675706068418551
-0.04202417643879264 -0.20428280484635525 0.251640106445107
0.576836232444018 -0.11231439054444915 0.2636887992513664
0.9174744090033669 0.4154980795018069 0.07867896207127237
0.5258330969972638 -0.4316259163992858 0.4924845129879435
0.1616005106835432 -0.5764908688636204 0.46625367967849074
0.12333096503181393 -0.07886137728426637 0.3200309888465845
0.7751421227952808 0.5820058163377232 -0.09961649326022233
-0.8372186324392751 -0.511206776438595 -0.3386934683298139
-0.8982852377079718 -0.6110044991141104 -0.40796579368898706
0.9467398962624645 0.5832113773336747 0.04179403286833594
0.5906043319166345 -0.16037518639257617 -0.004120152928376836
-0.9417793092135496 -0.60854594521417 0.3657336085701553
-0.17832915174949635 -0.19144160390997034 0.2776367447086248
-0.8402957774732036 -0.5098954818143101 -0.26135673043952584
-0.09251593662701828 0.10251171716353237 0.2919177016868961
0.469507706202809 -0.39820025553940464 0.33309353868714414
-0.48267104884794826 -0.3374320760254433 0.22310981376058944
0.8628605195572627 0.4356645457357233 0.1611331087564243
0.33760451077445436 0.418456644765642 -0.19572381585747503
0.1224012008178051 0.34926930157503583 0.06269776882280922
0.7548877098985451 0.47495397622673247 -0.14031643011649475
-0.8299823019693137 -0.47337390079023545 -0.360594163701349
0.935490628739586 0.5590191279050809 0.12935274220659165
0.2388927811600461 -0.016369443179044596 0.33760549893920516
0.19578903473102646 -0.04122524523778705 0.3352141402423178
-0.7590409663460732 -0.4771348558317038 0.2227619797683149
-0.9732108536063567 -0.467561515726148 0.30224501149729693
0.3498488602013682 -0.05132952626393685 0.3608056309580159
-0.04017107108165508 -0.14020249472072985 0.2970462767434438
0.33861639147925293 -0.31071803015285926 -0.21965716612136446
-0.8507732883257231 -0.3414203089595911 0.2212095729448397
-0.10078489926154455 0.07116021411553819 -0.2423938488720594
0.42240485702738306 -0.40963925069443285 -0.3459238698112705
0.2946351547515408 -0.41051575282837466 0.40738672914503005
-0.7801461890932305 -0.3398263992165831 0.2464897917640421
-0.05857346560247917 -0.007656201672567674 0.3342655020815691
-0.5555936547965025 -0.16954456474801308 -0.2803601267617743
0.32354786719461015 0.2559233065573625 -0.27320680213087856
0.9820420819840767 0.5959883475612588 0.04119737899181503
0.8417809890936258 0.4687008696837972 -0.14096763068725873
0.9329885955906112 0.5656645358540758 -0.070498538998416
0.8867464379131148 0.42288559917863755 -0.11162971095192877
0.29271613880552616 0.05863819039365519 -0.3356439919089071
0.9605692619496293 0.56369314717627 0.04100024012403444
0.43742594940398843 0.375978406623866 -0.24336916748107915
0.013724126141206714 0.22358759141759155 0.01174720374079648
-0.8139285774281433 -0.43158046082074997 0.14455071607358666
0.3121483986296131 -0.4426637166654974 -0.3496858130174896
0.7585725762542035 0.5673869070146851 -0.12039107608176869
0.7633730806134923 0.17880396491224604 0.01541685235929275
0.3671259327040041 -0.13156059870925924 -0.30051671134818286
-0.3561523631465934 -0.40101751324387813 -0.013610576129694655
0.7922363848190227 0.6049302503910663 0.14575528890478737
0.6176118627202002 -0.14367312695841905 -0.0054076327821679804
-0.4847027155755518 -0.26596108409578484 -0.2604575005163161
0.69961372639892 0.2057047739227275 -0.15550452233598197
0.25166678689337796 -0.44469340706359933 0.3623807655707591
0.4299821043363634 0.5821224197783151 0.048028067831581145
0.19412595345546388 0.1494831404271046 0.3142373789127619
-0.11581883777991009 0.06177462531263061 -0.29876173075079776
0.42107478727283326 -0.10418591825703552 -0.28711423283335497
-0.6855906804206026 -0.38504086555326855 -0.2564702557469192
0.3624074460190301 -0.4306090948707333 -0.3324314683041216
0.5805052881636639 -0.30971603109556844 -0.3975712886755332
0.42059651553345584 -0.3658022860203345 0.44227190934181315
0.8834400386570052 0.4086995060164411 -0.015007584164462243
0.9620149469800203 0.5781411039974229 0.08367186210753803
0.3478695662055561 -0.19552410776134244 0.3050257071059916
0.7520753930178256 0.10891601291333695 0.024205589652729263
-0.013644381245818887 -0.3222449719707069 0.15844530063430295
0.5598901951328933 -0.28791612852861287 0.3733691575994316
0.15328510430573025 -0.563656585080491 -0.48160679541135826
-0.9603054219611713 -0.42584317627772184 -0.24118433521710478
-0.989041252913851 -0.5152938258478208 -0.307187811580698
-0.9921440902312999 -0.5348832038672816 -0.3206466154863204
0.5338668764211044 -0.13160704245254587 0.3077540299828949
0.6384947483984321 0.6312332197273259 0.04424754712804738
0.29848899727958245 -0.3293814978008394 -0.015084730186555631
-0.5336307050456681 0.016139200792112854 0.13724719040057234
-0.5236136789670124 -0.08070707140577309 0.26888753400521953
0.4049380568925974 -0.2544894795039808 -0.34442087122533427
0.14651123493913396 0.15131915053405365 -0.2899028337600559
-0.009402684053096123 -0.3361652488149435 0.13956542490590204
-0.5281730711271108 -0.3030716113113243 -0.2501746581197004
-0.8228437998096797 -0.4536076412803849 -0.31744594985854424
0.29000955555314 -0.297155468948405 -0.24796314540745495
-0.06383741922988374 0.06936570692812188 -0.299456410570596
0.3025711058650542 0.37353072253618413 0.22572647402065465
0.013960495149593268 0.08498266264944757 -0.30462055955817186
0.3237662516045325 -0.366644202387999 -0.4142268055499286
0.5187963758069601 -0.38524245116242767 -0.5074967118817919
0.5853878101972673 -0.1598277431206441 0.2092063357171161
-0.863443536760223 -0.5064912542478733 0.3515386219252019
-0.5460371134917099 -0.21697084024636928 -0.28230977581506306
-0.25070332626136765 -0.2029132085017743 0.2777197505476904
0.32217135369677374 -0.4013119863396105 -0.4752835291711176
0.8645156955148192 0.45129434759880915 -0.14887788951725192
-0.11815485925075381 0.17327221863738013 -0.010028241748577298
0.22042299380321884 0.4149891746551552 0.0207114390939715
-0.028872296504762515 -0.051577950882282925 -0.32430875405271076
0.9543161554066941 0.5873962550532276 -0.02836734431711394
-0.8909135286671538 -0.4948348628476736 0.34635273331310895
-0.3699945749755183 0.09656592985808966 0.027414654680887017
-0.8912613626594282 -0.45082299301268713 -0.19461904766610313
-0.007052630642791345 -0.28773134172021697 -0.18179563369523222
0.5077872323185211 -0.37884013174212466 0.4768645927723655
0.4960755036922776 -0.39176137402332273 0.4954806285123081
0.6906135218488167 0.23009169180722489 0.25031893017331425
0.413739640327794 -0.2729503733780511 0.3760727763575655
-0.10888982654744135 0.15309389442645438 -0.23549744707636638
0.27078481032671686 0.4312296623342231 -0.08311453718809816
-0.03110950150052823 -0.21040646180693834 -0.2388572072290181
-0.9050472490975587 -0.41717104242487735 0.3091374606339868
-0.9840905475124435 -0.4939968991390121 -0.293673670449032
-0.8018472751851082 -0.5896453180260026 -0.36210210311103913
0.1712390696626504 -0.057281044924934084 0.3313840136682949
0.2880974567603809 0.4423050128609643 0.011422196354264967
-0.9075305071162687 -0.24339041302322093 0.05230632712008276
0.6915117636072758 -0.011617161259593858 -0.011892276207858484
-0.8389686722129063 -0.5621525983298039 0.2786693768731899
0.36331260493074446 0.5464131101793817 0.04773171722282226
0.23926630743584093 0.13847597326816719 -0.3027687388152103
0.564058274051683 -0.2035772552142984 -0.17985883078370363
0.0620968658378599 -0.10505586589418536 0.3200112255515689
0.4991892108219851 0.29662185998298385 0.29977954044410104
0.3944714158523366 -0.2737478223319305 -0.009212669853168607
-0.5547774307123583 0.00190468755712826 0.02795488435013839
0.7438301463373181 0.2810562888286987 0.047261054352025794
-0.054200342497902676 -0.11862739963457672 -0.2914315246295124
-0.5863898092545582 -0.02097122760695156 -0.12017664433084943
0.3691971260216388 -0.3823836905384214 0.4688140145477615
0.4196962974454953 -0.13805155650770723 -0.3091720464002641
-0.49703698799478657 -0.3837661330247625 -0.054489775953406074
-0.9434641301136292 -0.46531047642387136 0.2400301587881938
-0.9612738234169356 -0.3065598328815774 0.056432112587539045
0.37651843866016715 0.38255859569930944 -0.19456963942856412
-0.8063236615061411 -0.46774630253454386 -0.21774901998760846
-0.9720052926104052 -0.3214425821930736 0.03715904610480278
-0.009520769740814323 -0.12885589296989955 -0.2946213204450299
-0.8238546923497275 -0.4648687667802728 0.1843806726832725
0.3542333472005787 -0.4010283830561367 0.4863035424718152
0.45282946153914566 -0.16112757503381997 0.3188511201341533
0.2286781221312342 0.111246105395676 0.33474772647994966
0.4101041822096747 -0.15441418134997142 0.3283246555998803
0.7230480534636659 0.5119982964039697 -0.15425943474999929
-0.9396913170951515 -0.5987591615224458 -0.4009152381921724
0.3092165138140491 0.04451435161075795 -0.3061897651824103
0.34838044738170926 -0.3897573759087411 0.4349693718335496
0.8100707822410983 0.4435451596231931 0.17220845928316553
0.5745782759884859 -0.1740384415851349 0.19343917895367188
0.9535424224068335 0.41382808107298885 0.01182289716070622
-0.06530484388479191 -0.0957542809767416 0.30873033675666545
-0.9554634146823496 -0.35619633647800303 0.037739395262935814
-0.9640604480141347 -0.5195814727014547 -0.2853513469179636
-1.0 -0.5871235215820124 -0.3571642438513919
0.5371139857921673 -0.42234704938946244 0.47379041223268914
-0.5787137454704999 -0.04528818342709372 -0.18094680017431228
0.9492893613194767 0.42156837556584786 -0.02799782010855979
-0.9593469021529146 -0.5812261543493579 -0.3894811838608981
0.7205084700541613 0.15409688164849597 0.12221522821170837
0.2127913974329456 0.126915433848793 0.32617144460793085
-0.02298115471003793 -0.23571039658015946 -0.21985479907152042
-0.20340284413578577 -0.19572579218697664 0.2762740655172993
-0.23955485154306874 0.032613883517115506 -0.289816863426738
0.40121069945265553 0.5698810348456537 0.04548957140330264
-0.4863559152036065 -0.34161695374499623 -0.19613192789954717
0.5358382650989104 0.2993472183656348 0.33035039333897914
0.14914172950571009 -0.38216332979899753 0.002476340865454447
0.8914609719390856 0.46521956526679964 0.16622709804669478
0.2934839428168822 0.025025766395876562 0.34870752991421744
0.9194369041984156 0.6051585164484964 0.036316141572387516
0.29226454751441977 -0.3725959186819464 0.3088291532317434
0.02282107202041148 -0.3831752105037961 -0.04372480797488482
-0.7006720508470057 -0.4108181312421133 -0.031010388576024957
0.4460585566668017 -0.3458018314645492 -0.46238007385543356
0.7305324132860728 0.23232790863823985 0.03997393221387443
0.3233798791869776 -0.43421589621108 0.5214179768907792
-0.17220648295366406 0.048604365514236 -0.29055403433081983
0.7098570422055047 0.15890331499628943 0.14627703989319918
0.44584412491588243 -0.2694858677618168 0.16622610988194397
0.6808346434750987 -0.03592018395675003 -0.011463284244602405
0.9563389286515406 0.4627491533898498 0.08357897462096471
-0.03856144951910968 -0.18587971861020558 -0.2569208588732748
0.3113262455569642 -0.16853337575854002 -0.2862515650059241
0.81298685642065 0.6291313933024171 -0.055441180975456965
-0.9033209252779462 -0.4041628416456106 0.021722924532869812
0.4249365351188812 -0.49073793179094005 0.6018634810870208
0.2510857460199194 -0.349663579310597 -0.016836123745895416
-0.048169573023892895 -0.034675294003717494 0.32846892765349417
-0.04806344412965914 0.01944856454247477 -0.33781004904261663
0.23674945181560447 -0.29540345284527225 0.22300111563800365
0.9493614973462836 0.4137460633986741 0.03729748798638704
-0.04498293933557784 -0.1618301601716245 -0.2713569577174185
0.34515211314091127 -0.30203206199350385 0.17030821846741578
-0.873653254965281 -0.6126656040601715 -0.4148256333889012
0.4051515004787658 -0.2794327341431673 -0.3640033320915397
-0.5619534831325218 0.01533285835547645 0.0014255264694750924
0.4365049798562616 -0.3752343185665288 -0.3087194669444069
-0.8356415214970302 -0.5155102339282415 0.35492012170237075
-0.940681458175433 -0.5038587833517956 0.23895207104509292
0.15113485780803315 -0.06927380760629938 0.3274382718184307
-0.05142804628958964 -0.15923691941615278 0.2789411221796543
0.5921270937975863 -0.14245847484676039 0.2243519368523198
-0.859555108465904 -0.5831184898471014 -0.3376222977399685
-0.9210802221789628 -0.4175653201604385 -0.19570009990345633
0.2234734583888764 0.4165494867966368 0.05700821263724373
-0.8725741790574293 -0.3376791172131383 0.20862628300840833
-0.8135372641868346 -0.6136033724086616 -0.38068651757895694
0.5082141194908579 0.6081279515245901 0.03772842663420216
-0.6987945378205238 -0.08485528821307207 0.04818251798212806
0.7446295716206989 0.16497855188408436 -0.023511226045651246
-0.9270625715801843 -0.26216850778229156 0.04987820869446638
0.04149200031226001 0.2381136132540562 0.012117172623488473
0.8179810410710916 0.37557029458179386 0.1413332516450473
0.7523777714315641 0.43618728488888586 0.1718072643943489
0.42934967889586423 0.34579787880554597 0.3115021388826031
0.1903333771419706 0.17793833259056285 -0.2841803716882894
0.4525211541369023 0.24837669235565635 0.3089101827413074
0.5982556915819234 -0.22537715778125397 -0.3060899605425816
0.34510072857387075 0.2715145699951679 -0.26942015480588993
0.8328805891833512 0.46683521463432476 0.18753983539151584
0.8382245841555688 0.4428880300639244 0.17584885822503873
-0.06185713706932081 -0.39835243291102473 0.041202122182618775
-0.8459075650928827 -0.527666636692336 -0.2808799014206845
-0.9033910849752517 -0.3888294892077587 -0.24279504376087602
0.2743570259007863 0.08731077880228502 -0.3307426947450387
-0.11154700156228856 0.1753592225910273 0.04681222992222155
0.5963623679194291 0.2777716291971063 0.31113058893630985
0.33703038705425126 0.5247377163710243 0.05085253913873537
0.3698216461441317 -0.308604345750941 -0.210580872885451
0.2612272808571736 0.4483921077257685 0.10092917131515836
-0.61630649708442 -0.03141711718744598 0.03366232631769299
0.39844680264472415 -0.47410119004680945 -0.6094150361124809
0.03916555415785136 -0.3911289485828236 0.015458058829400271
-0.0984409724726946 0.13291458205077783 -0.2632767345502912
-0.916912143260173 -0.5531059500364139 -0.2946717168473197
0.3700578175195681 -0.18955480213483117 0.31313952787464544
-0.8756019158538191 -0.5552137054498276 0.27866641237893747
0.168897119203302 0.16592719004483303 -0.2873059367950062
0.4250017539924326 0.22110136890462928 0.3227010100031918
0.24643445453799837 0.3992259705507141 0.15728519521688736
0.5807039092785706 -0.19500650706488393 -0.19471193515267643
0.4109164536348158 0.3887840336292228 -0.23746191860091684
-0.4932384826927886 -0.18943266497163477 0.3039673826579063
-0.12069147816600581 0.1762792039740034 -0.19382950403022994
-0.5424896020364101 -0.030627474735097755 0.20797607060239512
-0.3693334927572466 -0.2184600045257946 0.2723905780467343
0.21406711812620244 -0.2830513934605234 0.24356877676073668
0.45548169573023894 -0.4192145671294902 0.36279085394233274
0.7487294671716846 0.5239432319113974 0.2060204925606017
-0.7541653614657252 -0.3709101096171159 -0.2624120903933588
-0.88238171420892 -0.3809024315770023 0.27891147723713094
-0.035919887507324826 0.2191072524375554 0.03512382198409648
-0.9262878504155729 -0.3933058755287917 0.15811228911329012
0.34297123353594006 -0.3627824545419511 -0.42860855533277936
0.9194062710911415 0.554398469530434 0.14621775000815238
0.5050747200776302 -0.3388787492205851 -0.4524282666503291
0.525683884119896 -0.3614780770709216 0.4484765958119602
-0.8123455374973939 -0.5210765659693848 0.35295565017782027
0.45244111279208915 -0.3999483189835343 -0.3504526288640948
0.25797918332136005 -0.3007800572542657 0.20514794308566303
0.23316142560552264 0.20273138618763076 -0.28167339771556077
-0.8308508987852492 -0.4866696575119791 -0.3296567016839316
0.39933615092042607 -0.3179128577032878 0.41048067297972196
-0.8514057137662222 -0.5006116739807328 0.22460984785227336
0.42374184393518827 -0.3882632708055619 -0.3242613221446733
-0.7746806498566668 -0.5245845508346535 -0.32047566298443547
0.30069556916807394 -0.35583170368496525 0.29413316705814463
-0.15214575034808112 -0.39288689367446106 0.0031003669055719597
-0.7819476134339024 -0.3678309882536857 -0.2590039101679189
0.42548299022606245 -0.17260006897389965 0.32090156199202163
0.34826384394111726 -0.1505166619399453 -0.3037509745774855
0.9376151829537629 0.39666168302244026 0.015515866467320892
-0.9852763452133795 -0.6261016801765259 0.3731873352852882
-0.7863281477741096 -0.5408003343949518 0.2945817938549987
0.9797525042565198 0.5041097771984937 0.0426400995279537
-0.9168558178693786 -0.40632395795556625 -0.2165078850606289
0.7763980801935222 0.4804135864747915 0.18451901574838167
0.5828670019180278 -0.3772047190795839 -0.38827858735919896
0.35723835620770034 0.4101402502230782 -0.20913617601981074
0.7122266612778748 0.1925868868561242 -0.12472220218443701
0.2563299363523084 0.08142428138188912 0.35298331879084216
0.6985040173837943 0.16440640449338279 0.16674094371710033
0.3277297804199107 -0.16256822042398203 -0.3025651768765496
0.2486390500969884 0.4386744955665989 -0.011817155923504196
0.39866815154889884 -0.28626984605381356 0.16396815342641188
-0.9731614453688179 -0.571963097975547 0.31910310214560217
-0.4896010482451678 -0.37071148850220914 0.10266438861752789
0.21352263934852272 0.1771230966711694 -0.27763575654387407
0.5985165670761293 -0.25755377839614935 -0.3340441531773944
-0.8866071066832548 -0.5909477191675306 0.3081285444234405
-0.9578942999692683 -0.5006393425937546 0.27145873868674886
-0.5585858176618641 0.00816569941806976 0.12209467211211324
0.9652086954545411 0.4379007625667382 -0.0006242236730676744
0.4832837109934317 -0.2264878549611306 0.15755199969959793
0.2649259815193428 -0.42750230489428126 0.3918310396382527
-0.01112624101140644 0.07573442874689838 -0.3012143556622335
-0.0410891749516047 -0.003718958039560205 -0.3358356958705584
-0.4976209933624975 -0.38062179278778085 -0.07801837393537601
0.3576197878015014 -0.06468239890827561 -0.3053182038722224
-0.06696693699560372 0.06407210835819392 -0.32444512078831833
0.6010363871906179 0.3039056223609825 -0.2633419534238427
0.3703374681440389 -0.3807621121823916 0.4390119538289902
-0.4939094465585681 -0.39894533176149266 -0.026603430710381765
0.29077538323499447 -0.4332277314603001 -0.510494803735658
0.7476306279688174 0.16321171330968987 0.03722722947260659
0.8700029743758999 0.4681544145766159 0.17693089862714273
0.9758008334181508 0.48424074855456206 0.05615809450214778
0.09164417768388013 0.33366914465447345 0.0557804179343997
0.39794086229232484 -0.37320166367417446 0.4404793784838984
-0.99470343693582 -0.5536514169788445 -0.33527441829211535
0.8818313064427354 0.43557462274340236 -0.13140318406446
0.8947090694748991 0.4056164319940078 0.01368440191822541
0.7223434919963595 0.18412127943619275 -0.10282674408608103
0.1763893843437153 0.3306325143753267 0.0108931329466974
0.8561400110872085 0.40340195478751006 0.1136221475389263
0.4237141753221664 -0.429771131162072 0.389908071033235
0.7789702730398024 0.35873690805225816 0.042494938126064134
0.2700772843651585 -0.5449684133137415 0.556762653696675
0.37417451187131723 0.3864272606986128 0.2702699764915606
0.4426306131463462 -0.26455492565542504 -0.18665542793956783
-0.3151870052382615 0.010932560720253516 -0.2848493592245674
-0.9664913333010534 -0.44337815978031125 -0.256340806164567
0.6174191705937981 0.47525536647572036 -0.1955163012598113
0.5357117800108105 0.41394172001932855 -0.2178102862021568
0.8063908567091941 0.4501717924419232 -0.11379082726188444
0.7510971099145534 0.5555536341240958 0.17856433496018193
0.2504276282959 -0.5538401564462435 0.5468019530088135
0.47402065461962084 -0.41100192988575834 0.38094739307316283
0.29307978343381325 0.4240496572550563 -0.136970504270354
-0.14743220448686095 0.0556124299267671 -0.2941598475064157
-0.9506016441085124 -0.48193634835574334 0.2558842740497067
-0.39991719179388474 -0.019006360816500787 -0.27172455500470866
0.4975705969602076 -0.3956685774479065 -0.5102319519119506
0.6778543385867466 0.17467640074823837 0.20687327874052475
0.20412123990960265 -0.48461131033610455 -0.39548724921613837
-0.27142612924997317 0.1370628976745519 0.014992732048258009
0.33815788303489114 -0.49573804542988625 -0.4352529751170235
-0.7796886688136195 -0.1421368272203815 0.04751461742707591
0.2593616258077011 0.4327988679584615 -0.0597076811034243
0.8181223486304531 0.4707562523654194 -0.13900414732745903
-0.5618378678566807 0.02591313834207693 0.03507273386648116
-0.07068540095278851 -0.15671107149668423 0.30155922516025563
0.3376460136939871 0.40232781970341225 -0.17340216230210767
0.37509350508954253 -0.29444394487226494 0.16812536253294294
-0.5886596236870997 -0.013996069080621414 -0.09030145942052045
0.452625899600485 -0.23927668316572417 -0.011865062150622007
-0.5395438829143351 0.019920907293347563 0.11218337966179073
-0.8675375033227042 -0.6098038789419128 0.39121738932801836
0.17855346514792328 -0.5811135035677689 0.4831068295030422
0.37358754200935396 -0.3571133533667268 -0.4450269126669876
0.644986990811056 0.3731433619538784 0.22466913773732017
-0.9088694703535755 -0.5901186489416262 -0.3993272574376691
-0.669677275274043 -0.0659454710927225 0.04484538680226922
0.3592927507245718 -0.5000790531800625 -0.6090830127562188
0.27702408256314126 0.2306401232439077 -0.27518313163243835
0.32117231913373523 0.36434968383668803 0.23771291244761494
-0.9730626288937398 -0.46138153337477045 -0.27111584551822826
0.45550837617851 0.3328430389228214 0.31078176677928454
0.017623918330159624 -0.3597379189447982 -0.10001729288313867
0.15912318165333794 -0.5546761438254032 -0.5328599365400598
0.8266689855599486 0.6545647776579903 -0.02784068214989077
0.26285380003695735 -0.3979265339034386 -0.3254263683858428
0.8278439134486258 0.6444380652919979 0.034290700282713936
0.5137270906354591 -0.4452566609715439 0.5099938042070127
0.9332544119085712 0.4023673462934435 0.12492181146409456
0.338162823858645 -0.4172382376279304 0.5025825685761633
0.5520639303067165 -0.4048268883581347 0.4509796171256857
0.32026320756301774 -0.40187425208280436 0.42405706849068714
-0.7109380944428582 -0.4218559315083249 -0.23532353008022913
0.5146905512674695 0.3145955886349196 0.29488417226873737
0.3434168958385418 -0.5281251451366978 0.5894985755605118
0.6999852763452135 0.5067748575313472 -0.16696525711552737
-0.1781502939296052 0.17588393807369143 0.005599237927344195
-0.5062862100620865 0.04314574343092778 0.03517392193696102
-0.09828780693632372 0.15446744343003846 0.19483150308752079
-0.12934088422958237 0.14979935314735415 -0.11587842411438207
-0.030730342685653982 -0.4009256139220556 0.033314097059518155
0.4803172404115904 -0.3541389774668792 0.4345790467569916
0.42499582500392796 -0.46842615988308045 0.421543177364703
0.8748588159612325 0.42809026292099533 0.13928379795192974
0.27045871595895954 0.4478347828063286 0.1232528012000273
1.0 0.5507472007763023 0.00744937879022942
