ply
format ascii 1.0
element vertex 792
property float x
property float y
property float z
property float nx
property float ny
property float nz
end_header
-0.0332749 0.196358 -0.0209591 0.625502 0.380406 0.681204 
0.0676855 0.107319 -0.011431 -0.385682 -0.581618 -0.716219 
0.013085 0.138031 -0.00268191 -0.0970472 0.103168 0.989918 
-0.0615201 0.107617 -0.0227153 -0.104011 -0.0771121 -0.991582 
0.0403975 0.0723987 -0.0363643 0.0257953 -0.728668 0.684381 
-0.0167516 0.0685922 -0.0273172 -0.482223 0.486343 0.72865 
-0.0334879 0.115532 -0.0167011 -0.266367 0.834825 0.481784 
-0.0492135 0.055224 0.0235456 0.702996 -0.661248 -0.261817 
0.0599186 0.0532543 -0.00114029 -0.326126 0.909705 0.257059 
0.00315118 0.147693 -0.0272321 0.450611 -0.71208 0.538417 
0.045598 0.0832519 -0.0155554 0.971388 -0.145636 -0.187603 
0.0512511 0.094392 -0.00946994 -0.0852643 0.0807797 0.993078 
-0.0612479 0.0551332 0.0325698 0.186045 0.778057 -0.600013 
-0.0291088 0.185814 -0.00495661 -0.472173 -0.857607 -0.203868 
-0.0599449 0.0614334 -0.0261251 -0.259888 -0.802784 0.536653 
-0.0635165 0.103375 0.0115202 -0.0269074 -0.273347 -0.961539 
-0.0343142 0.05523 0.00852288 0.160051 -0.683746 0.711952 
0.0319902 0.0769914 0.0256146 -0.791456 0.158767 0.590246 
0.0749858 0.0647947 0.00685695 0.846093 -0.531259 -0.0434905 
0.0645064 0.104459 -0.00731792 -0.454144 -0.554115 -0.697646 
0.0350414 0.0910145 0.0261094 -0.852207 0.432511 0.294412 
-0.0452167 0.106652 -0.0181443 0.657813 -0.482952 -0.577961 
0.0495608 0.0528315 -0.00845082 0.0318092 0.999306 -0.0194038 
-0.0461076 0.0928275 0.0111056 -0.564003 -0.823418 -0.0623156 
-0.0409775 0.142474 -0.00110139 -0.333312 -0.792719 0.510392 
-0.0502224 0.109874 -0.0229942 0.0640037 -0.424437 -0.903192 
-0.0675786 0.143503 0.0127826 0.266434 -0.125008 0.955712 
-0.0876445 0.146035 0.019827 -0.32822 -0.601661 -0.7282 
0.0264521 0.10722 -0.0229108 0.814139 -0.50488 0.286835 
-0.0642497 0.128772 -0.0061144 -0.552202 0.814647 0.177267 
-0.0668284 0.143573 0.0088395 0.00243486 0.850901 0.52532 
-0.033865 0.0531211 -0.0200048 0.0641147 0.996881 0.0460113 
-0.0692477 0.123261 -0.0131779 -0.65758 0.6763 -0.331974 
0.0230513 0.124564 -0.025148 -0.385084 0.837361 0.38799 
0.0667518 0.0556234 0.0126169 0.667496 -0.712325 0.216895 
-0.0480773 0.177447 -0.0236298 -0.0452114 0.832085 -0.552803 
-0.0952802 0.138598 -0.00721395 0.579621 -0.626855 -0.520665 
-0.0467833 0.167792 0.00395773 -0.136237 -0.870672 -0.47262 
-0.0582351 0.155512 -0.00330624 0.130572 -0.938664 -0.319156 
0.0827265 0.0844343 0.00431968 0.886632 -0.364993 -0.284014 
-0.0607833 0.105374 -0.0225466 -0.115289 0.00848514 0.993296 
0.00304469 0.0942849 -0.0047452 -0.795472 0.20187 -0.571378 
-0.0984987 0.150186 -0.000954018 -0.694763 0.446834 -0.563599 
0.0330808 0.0595545 0.0252723 -0.327592 0.492397 0.806368 
-0.0702262 0.122162 -0.0131054 0.792465 -0.500317 0.348829 
0.0769483 0.082587 0.0213494 0.475743 0.184804 0.859951 
-0.0380848 0.094096 -0.00384544 0.158578 0.985029 0.0676018 
0.0422709 0.0738081 0.014991 0.287273 -0.8799 -0.378484 
-0.054876 0.139253 -0.0163215 0.861462 -0.466531 0.200579 
-0.059533 0.0913507 0.0178213 -0.367995 0.264668 0.891365 
-0.0267968 0.0917771 -0.0290267 0.617454 -0.258705 0.742847 
0.0477065 0.0822433 -0.0268711 -0.859404 -0.511044 0.0160726 
0.0717619 0.148138 -0.00880257 -0.077795 0.659439 0.747722 
0.0737295 0.0960725 -0.00624461 -0.332071 -0.535228 -0.776698 
-0.0364592 0.17574 -0.0237247 0.293018 0.184811 -0.938075 
-0.0209887 0.149912 -0.0102544 -0.0356512 -0.439989 -0.897295 
-0.0529093 0.18081 -0.0140883 -0.036584 0.99851 -0.0404991 
0.0141594 0.148197 -0.0059501 0.151581 -0.575724 -0.80347 
-0.0602082 0.160098 -0.0163016 0.00420917 0.866518 -0.499128 
-0.0390327 0.149704 0.00176773 0.18611 0.017966 0.982365 
-0.0123571 0.10946 -0.0326255 0.266347 -0.227943 0.936537 
-0.0116981 0.0786566 0.0108488 0.943252 0.256945 0.210369 
0.000711911 0.081618 -0.0126441 0.924714 -0.379975 0.0228454 
0.0307324 0.0730966 -0.0408669 0.718813 0.049111 -0.693467 
-0.00899004 0.104289 -0.0336966 -0.101706 -0.0336233 -0.994246 
-0.04315 0.148754 -0.0343651 0.609756 0.224441 0.760147 
-0.0870296 0.0781639 -0.00618639 -0.994983 0.0773913 -0.063404 
-0.069765 0.0578882 0.0085385 -0.285463 -0.805347 0.519545 
-0.0549748 0.0764112 0.0280196 -0.546774 0.832783 0.0866676 
-0.0800144 0.108237 0.00178145 0.654436 -0.64925 -0.38754 
-0.0636579 0.152349 0.00793072 0.052281 -0.816605 -0.574824 
0.0478662 0.0902752 -0.015658 0.851846 -0.465766 -0.239626 
0.0235936 0.0702316 -0.0376697 0.3125 0.893005 -0.32386 
-0.0781937 0.166752 -0.014586 -0.226503 0.85729 -0.462332 
-0.0108744 0.0776664 0.0071931 -0.982669 -0.182245 -0.033895 
-0.0145227 0.170373 -0.00997012 0.375556 -0.881336 0.286711 
-0.0611165 0.054984 0.00725416 -0.244676 -0.884825 0.396507 
-0.0643283 0.0719638 -0.0310106 -0.511773 -0.0471549 -0.857826 
0.025923 0.0686568 -0.0423706 0.646759 -0.760949 0.0515781 
-0.0207444 0.167863 -0.0117532 -0.0610274 -0.227626 0.971834 
-0.039772 0.116965 -0.00470134 -0.767454 0.464803 -0.441558 
-0.0355458 0.157298 -0.0399852 0.367567 -0.02378 0.929693 
0.0522607 0.097357 -0.0207296 0.780635 -0.621443 -0.066472 
0.0795207 0.110403 0.000978343 -0.637215 -0.597326 -0.486988 
0.0354594 0.126767 -0.00514497 -0.685662 -0.231199 0.690228 
-0.0576702 0.0614108 0.0375966 0.0366558 0.175013 -0.983884 
0.0588757 0.0802774 0.0208356 0.554683 -0.67453 -0.487171 
0.0507648 0.148533 -0.0126383 0.588615 0.731005 0.345201 
0.0306899 0.116093 -0.0125718 0.90937 -0.350867 -0.22347 
0.00778743 0.102172 -0.0229181 0.840159 -0.376729 -0.39014 
-0.0160279 0.132783 -0.0198964 0.568386 -0.101539 0.816473 
-0.0413597 0.190173 -0.0175831 -0.654078 0.524891 0.544675 
-0.064379 0.0960985 -0.0246933 -0.190853 -0.897719 0.397083 
0.0632627 0.089503 0.00371454 -0.970805 0.238925 0.0212877 
0.0835219 0.0967285 0.000721546 0.97827 0.0116008 -0.20701 
-0.0938489 0.165484 -0.00362339 0.453644 0.858872 0.237794 
-0.0736045 0.098207 -0.021413 -0.395278 0.117257 -0.911047 
-0.0516655 0.146124 -0.0017223 -0.0235506 0.902604 -0.429828 
0.0435699 0.104567 -0.0337032 0.145031 -0.0751353 -0.98657 
-0.0732369 0.0789562 -0.0237534 -0.808699 -0.524088 -0.267093 
0.0698529 0.127253 -0.0195132 -0.589677 -0.0982647 -0.801639 
0.00561413 0.122198 -0.0344913 -0.0833011 0.108035 0.990651 
-0.0601096 0.132275 -0.0141752 0.62254 -0.779089 0.073926 
0.0278832 0.0532299 -0.00305535 0.462781 -0.869527 -0.172502 
-0.0857756 0.0891972 -0.0111456 0.928127 -0.219411 0.300732 
-0.074392 0.117609 -0.0124963 -0.761358 0.564248 -0.319308 
-0.0297021 0.146087 -0.0292882 0.441974 -0.136491 -0.886583 
-0.0309985 0.0639125 0.0258799 0.0746772 0.161819 -0.983991 
0.0187957 0.071279 -0.0299038 -0.521358 -0.240781 -0.818664 
-0.0418966 0.184718 -0.0223961 0.414998 -0.158761 0.895863 
0.0255067 0.0930014 -0.00566571 0.409346 -0.216163 -0.886403 
-0.0409498 0.0602129 0.0302928 -0.844823 0.112765 0.523027 
0.0235845 0.158264 -0.0232309 -0.0736123 -0.390312 0.917735 
0.0543041 0.14491 -0.0120338 0.636296 0.652723 0.411193 
-0.092793 0.179922 0.00541387 -0.02043 -0.998458 0.0516244 
0.0242798 0.0928051 -0.0325819 -0.554621 0.259034 -0.790757 
-0.0613712 0.144869 -0.00326611 0.149677 -0.980242 0.129316 
-0.0193331 0.0952499 0.00445293 -0.0105544 -0.361308 -0.932387 
0.0421065 0.0791317 9.62707e-05 -0.233394 -0.953034 -0.193011 
-0.0157547 0.134661 -0.0173269 0.621577 -0.243436 -0.744568 
0.0462148 0.0809259 -0.00530635 -0.00680772 0.420934 0.907066 
-0.0708001 0.16669 -0.0176676 0.392133 0.245676 0.886496 
0.0527932 0.0552646 0.00779248 -0.0492349 -0.99853 -0.0226638 
0.0290647 0.089026 -0.0347544 -0.0105005 0.108612 -0.994029 
0.0660217 0.106592 -0.00372823 -0.9124 0.136826 0.385753 
0.0490125 0.123758 -0.0337484 0.258774 -0.12349 -0.958011 
-0.0183735 0.0973495 -0.031955 0.190239 -0.182551 0.964616 
-0.0258914 0.145979 -0.00543813 0.90069 -0.428493 0.0717737 
0.0305993 0.0764523 0.0234385 0.923912 -0.263146 -0.277742 
0.00552846 0.0554921 0.010577 -0.676276 0.627831 0.385331 
-0.0854571 0.171366 0.0168606 0.107155 0.174685 -0.978776 
-0.0600941 0.118555 0.00670646 0.11613 -0.391251 -0.912927 
0.0459993 0.0831136 -0.0306461 -0.819664 -0.255345 0.512787 
0.0651417 0.0540028 0.00596678 -0.608824 0.766886 0.203025 
-0.0627819 0.161349 0.00309557 0.17196 0.939352 0.296728 
0.0378668 0.0791656 0.0117789 -0.848102 0.344125 0.402867 
-0.0904432 0.153064 0.0031045 0.251917 0.903811 -0.345924 
0.0343957 0.0566945 -0.0492104 0.538596 -0.597981 -0.593576 
-0.0850633 0.0996635 -0.00787879 0.892463 -0.447472 0.0572547 
0.0158382 0.0907476 -0.0137819 -0.796594 0.375926 0.47341 
-0.00873737 0.133284 -0.00801603 0.70417 -0.461476 -0.539616 
-0.0807343 0.0666542 0.0051959 -0.72984 -0.609773 0.309049 
-0.0693585 0.0743767 -0.0258785 0.610656 0.778009 0.147655 
-0.0367426 0.156642 -0.000421112 0.286158 0.149175 0.946499 
0.0308881 0.130927 -0.031707 0.110139 0.657429 0.745424 
-0.0853932 0.0728891 -0.00142073 -0.861373 -0.478489 0.17054 
0.00395567 0.125302 -0.000922718 0.236083 0.0879101 0.967748 
0.0621775 0.11711 -0.0208142 -0.91333 0.264676 0.309475 
-0.01103 0.0672406 0.00143002 0.679185 -0.237659 0.694425 
0.0388544 0.0990843 -0.034535 -0.194187 0.0583753 0.979226 
-0.0154594 0.0829557 -0.0315975 -0.230065 0.117364 0.966072 
-0.0423412 0.181141 -0.0332918 -0.398782 -0.437597 -0.805904 
0.0499566 0.156184 -0.0182216 -0.266386 -0.690172 -0.67283 
0.0288079 0.0857447 -0.00118468 0.141715 -0.468982 -0.871764 
-0.0157376 0.171137 -0.00733439 -0.393002 0.628472 -0.671247 
-0.0574922 0.0651842 -0.0360672 -0.181964 0.279671 -0.942695 
-0.0358636 0.139469 -0.0299879 -0.136615 0.158457 0.977869 
-0.0559378 0.160858 -0.0106418 0.711313 0.627392 -0.31688 
-0.0335156 0.164793 -0.0399816 -0.0339574 -0.663541 -0.747369 
-0.0437601 0.176911 -0.0245909 0.103048 0.867687 -0.486312 
-0.024786 0.130621 -0.0220975 -0.0912122 -0.429871 -0.898271 
-0.070749 0.163736 -0.00498156 0.159757 0.977891 -0.134934 
0.0754129 0.0663229 0.00267395 -0.893983 0.419362 0.157894 
-0.0236311 0.149961 -0.00389313 0.462593 -0.0559695 0.884802 
-0.0140655 0.112916 -0.0312849 0.569967 -0.187876 0.7999 
-0.0275095 0.0731422 0.0198002 -0.366564 -0.290166 -0.883988 
-0.0869237 0.0799305 -0.00324076 -0.998614 0.0502717 -0.0155756 
-0.104136 0.147273 0.00434402 0.838814 -0.543295 -0.0349479 
0.0522207 0.0933872 -0.0134464 -0.490278 0.612164 0.620389 
0.0282468 0.151008 -0.00539893 0.0716928 -0.570557 -0.818122 
0.0530393 0.0546294 -0.0101527 -0.272283 0.876786 0.396368 
-0.0177924 0.109519 -0.0289748 0.66529 -0.410843 0.623375 
-0.0866424 0.0894792 -0.00859152 -0.934205 -0.0304876 -0.355432 
0.0570116 0.100462 -0.0148499 0.731745 -0.360161 -0.578648 
0.0387157 0.0708708 0.0227033 0.758591 -0.557753 0.336826 
-0.040856 0.0530807 -0.0312704 0.104608 0.992517 -0.0629836 
0.0809241 0.10467 0.00591874 0.705142 0.547545 0.450521 
0.037027 0.0782031 0.0111264 -0.802398 0.424399 0.419574 
-0.014172 0.0935477 0.00709773 0.49209 -0.641816 -0.588149 
-0.0115384 0.0568934 0.0129276 0.849235 -0.492518 -0.190328 
0.00569342 0.125441 -0.00139602 0.179128 0.0575168 0.982143 
0.00912935 0.140159 -0.0344039 0.189114 -0.168441 0.9674 
0.0387376 0.112313 -0.00223099 0.374838 -0.0325859 -0.926517 
-0.0477529 0.147951 -0.0308234 -0.248202 0.158216 -0.955701 
-0.032261 0.0855984 0.0102943 0.242343 0.373822 0.89528 
-0.0320078 0.18045 -0.00646232 0.0201281 -0.237288 -0.971231 
0.0535621 0.138552 -0.0300946 -0.58556 -0.425079 0.690238 
0.0696252 0.0953955 -0.00347743 0.507514 0.454491 0.73203 
-0.0222449 0.186205 -0.0280363 -0.348401 0.41686 -0.83955 
-0.073895 0.0935987 0.0132701 0.246319 -0.14674 -0.958016 
0.0553323 0.080133 0.00682747 -0.587898 0.80816 0.0353861 
0.0363095 0.0873626 0.0112301 -0.494082 -0.490287 0.717984 
-0.0892288 0.177627 0.0142256 0.406403 0.80608 0.4302 
-0.0169026 0.0596954 0.00235443 0.491491 -0.667949 0.558821 
-0.00888163 0.0699446 0.0104122 -0.925718 -0.0906655 0.367186 
0.0339738 0.136999 -0.00277454 0.242711 0.097645 -0.965172 
-0.0512295 0.162502 -0.0318561 0.132446 -0.407475 0.903561 
0.030443 0.0665144 -0.0312783 0.0028381 0.653463 0.756953 
0.0653954 0.0539794 0.00722067 -0.598094 0.795951 0.0935185 
-0.0831936 0.140898 0.0065259 0.0881088 0.975786 -0.200195 
-0.104235 0.14288 -0.000651019 -0.858432 -0.418594 -0.296434 
0.063098 0.135158 -0.0153582 -0.557088 -0.221326 -0.800417 
0.0464487 0.0910924 -0.0262632 -0.798373 0.495036 0.342841 
0.0132697 0.15455 -0.0255481 0.37262 -0.804312 0.462857 
-0.0439482 0.105081 -0.00746836 0.676454 -0.0324045 0.735771 
-0.0308502 0.100945 -0.0119327 0.405052 -0.231291 -0.884555 
0.0319517 0.0589565 -0.0490734 0.505146 -0.66033 0.55569 
0.0349158 0.111566 0.00718387 0.561592 0.0990705 0.821462 
-0.0433346 0.159931 0.00179634 -0.299554 -0.419634 0.85684 
0.0144718 0.0683062 -0.00888623 0.880629 0.187985 -0.434918 
-0.0463832 0.177115 -0.0243965 0.00257882 -0.873756 0.486358 
-0.0215006 0.174011 -0.00664654 -0.633428 -0.583911 -0.507756 
-0.0584116 0.161574 -0.00182357 0.100374 0.99232 0.0722887 
-0.0238283 0.135296 -0.0191769 0.639119 0.00178527 0.769106 
-0.0372177 0.119251 -0.0218765 0.661291 -0.496567 -0.562241 
0.0680177 0.115264 -0.00285887 -0.667303 0.437523 0.602728 
-0.0529786 0.057142 -0.0311382 -0.348936 -0.908865 0.228492 
-0.0582602 0.0599159 -0.0232731 -0.378709 -0.453507 -0.80679 
0.00477013 0.0904385 -0.0153213 -0.918912 0.393638 -0.025473 
-0.00756756 0.0934049 -0.0325611 0.199729 -0.118757 -0.972628 
0.0392036 0.0902987 0.0311676 0.145462 -0.0993902 -0.984359 
0.0612947 0.0704088 -0.0051542 -0.652625 0.648101 -0.392488 
-0.0661379 0.0879503 -0.0332522 -0.291765 0.424574 -0.857094 
-0.0410749 0.145994 -0.0330918 -0.47964 -0.795102 -0.371158 
0.0445306 0.109075 -0.034101 0.0788875 0.109568 -0.990844 
0.0818992 0.12972 -0.0161608 -0.541358 0.540207 0.644289 
0.0677433 0.0645907 0.0240172 0.338209 -0.37831 0.861682 
-0.0601411 0.053317 -0.00852198 -0.0347117 0.998309 -0.0466279 
0.0195562 0.155526 -0.0130803 -0.126496 0.955639 0.265995 
0.0412901 0.146392 -0.00487786 -0.317236 -0.447598 -0.836073 
-0.0178777 0.0570107 0.00820185 -0.431931 0.448194 0.782661 
-0.038609 0.0752959 -0.0288154 -0.194561 -0.088899 -0.976854 
-0.0861209 0.181897 0.0020747 -0.0297373 0.993861 0.106563 
0.0548435 0.107566 -0.00756963 -0.722151 0.318436 -0.614082 
-0.0849452 0.176921 -0.0054282 -0.185436 -0.510844 0.839435 
-0.0525837 0.119953 0.00545308 0.23527 0.246836 0.940064 
-0.0426105 0.150183 -0.034917 0.533287 0.117416 0.837746 
0.0506693 0.104465 -0.030778 0.695606 -0.369148 -0.616329 
0.037836 0.0598827 -0.00581313 -0.375525 0.391161 -0.840223 
-0.0522931 0.0795421 0.0227255 -0.0455673 -0.975846 -0.213655 
0.013285 0.133409 -0.00237801 -0.145545 0.139493 -0.979468 
0.0720356 0.0922492 0.0182882 0.0825579 -0.433128 -0.897544 
-0.0509696 0.0597036 0.0161472 0.545589 -0.699365 -0.461759 
-0.0456484 0.164258 0.00342373 -0.388844 0.418619 -0.820706 
0.0608543 0.127432 -0.0256942 0.811879 0.179645 -0.555499 
0.0478701 0.0956215 0.0254374 -0.834857 -0.187485 -0.517555 
0.0383528 0.104884 0.0231737 -0.653929 0.460877 0.599975 
-0.0725184 0.0618277 0.0105189 -0.478479 -0.621115 0.620704 
0.0399349 0.099682 0.0122048 0.00725804 0.149578 0.988723 
-0.0626416 0.0614003 -0.0297076 -0.368559 -0.925948 0.0823639 
0.0294583 0.102582 -0.0317351 0.532774 -0.413161 0.738545 
-0.0746989 0.101698 0.0105418 0.359949 -0.268107 -0.893619 
0.012462 0.0808069 -0.0146902 0.985339 -0.170129 -0.0127926 
0.00901134 0.155016 -0.0187171 -0.141821 -0.565733 -0.812301 
0.0308119 0.121999 -0.0150198 0.851051 0.426783 -0.305891 
0.0274638 0.0909415 -0.0343885 -0.205431 0.087903 -0.974716 
-0.0758975 0.17054 0.0145789 0.504145 0.862972 0.0334285 
0.0723949 0.122355 -0.0193754 0.19305 -0.242993 -0.950624 
-0.0391863 0.192604 -0.0180785 -0.220303 0.526179 0.821342 
0.000949948 0.105045 -0.000107726 -0.65426 0.0897227 -0.750929 
-0.0890706 0.167933 -0.0133617 -0.290032 -0.711273 0.640291 
-0.0729353 0.0683335 -0.0332461 -0.147641 0.980399 -0.130461 
-0.0338767 0.0544333 -0.0161479 -0.0414941 -0.891063 0.451979 
-0.0646704 0.154142 -0.004886 0.391158 -0.911732 -0.125457 
-0.0809265 0.101616 0.0053333 0.691423 -0.564888 -0.450373 
0.0149254 0.0897952 -0.0146622 -0.805792 0.430764 0.406377 
-0.0779592 0.165156 -0.00437973 0.0926886 0.853946 -0.51204 
-0.0581354 0.151081 -0.0259439 -0.45575 -0.461462 -0.761147 
-0.0904268 0.154113 0.00862043 0.451538 0.892159 -0.0128513 
0.0590883 0.0653726 -0.0203129 -0.655379 -0.552949 0.514515 
-0.0782658 0.10832 0.00399761 -0.559494 0.648949 0.515588 
-0.0299581 0.161258 -0.0297327 -0.894145 -0.367733 0.255496 
-0.0704617 0.105239 0.010415 -0.0577128 0.378793 0.92368 
-0.0957219 0.144369 0.0187897 0.201765 0.873857 0.44234 
-0.019316 0.118777 -0.0106746 -0.814579 0.446792 0.369916 
-0.0708877 0.176941 -0.0145753 -0.0624552 0.948866 -0.30944 
0.0898962 0.134501 -0.0133022 0.553744 -0.338081 -0.760966 
0.0624728 0.0873101 0.00470992 0.828622 -0.558206 -0.0423303 
-0.0626042 0.0884262 0.0170239 0.480587 -0.296155 -0.825426 
0.0648108 0.0909192 0.0142579 -0.880623 0.425449 0.208556 
-0.0226639 0.136271 -0.0203829 0.57848 -0.109727 0.808283 
-0.0295279 0.122814 -0.0152928 0.357193 -0.320207 0.877429 
-0.0513813 0.179173 -0.020417 -0.151383 0.821553 -0.549666 
0.0807954 0.0760036 0.00877731 0.92093 -0.356953 -0.156439 
0.0271045 0.0588179 -0.0258866 0.0343287 -0.565103 -0.824306 
0.0378798 0.101933 0.0237257 -0.886547 0.231884 0.40033 
-0.0497941 0.115552 0.00521265 -0.479907 -0.167391 -0.861202 
0.0169051 0.147839 -0.00501324 -0.145807 0.512347 0.84631 
0.0538379 0.0946004 -0.0101285 -0.644513 0.263043 -0.717922 
-0.0493898 0.154816 -0.0297768 -0.469552 0.000723372 -0.882905 
-0.0222234 0.114402 -0.0185825 -0.701155 0.138177 -0.699492 
0.092895 0.134606 -0.0105425 -0.17592 0.982358 0.0634487 
-0.0464487 0.0827144 -0.0275562 -0.169271 -0.534255 0.828202 
-0.0567065 0.156406 -0.00775443 0.302046 -0.953157 0.0161076 
-0.0593999 0.117301 0.00716679 -0.0309005 -0.272552 -0.961645 
-0.0442359 0.0601708 0.0274305 0.469318 0.0773669 -0.879633 
-0.0655898 0.127848 -0.0101857 0.713725 -0.692667 0.103971 
0.0649647 0.117918 -0.0101973 0.897089 -0.255877 -0.36022 
0.0645973 0.122466 -0.01317 0.377277 -0.187552 -0.90691 
-0.0485525 0.0844858 -0.0268405 -0.447943 -0.653981 0.609636 
-0.058083 0.143516 0.00991401 -0.249042 0.269911 -0.930122 
-0.0835488 0.0688683 0.00252434 0.850637 0.454824 -0.263726 
-0.0062479 0.104859 0.0025145 -0.28924 -0.0995981 -0.952061 
0.0222577 0.0704723 -0.0384706 0.253268 0.961357 0.107927 
-0.0312165 0.170464 -0.00200064 0.315092 0.225892 0.921786 
-0.0419672 0.0553202 -0.0137097 -0.175157 0.596138 -0.783543 
-0.0418 0.0541687 -0.0271286 0.313762 0.749655 -0.582727 
-0.0595562 0.153096 -0.015993 -0.524101 0.845357 -0.103394 
0.0413678 0.0811121 -0.00364982 0.701291 0.584086 0.408699 
-0.0309694 0.163738 -0.030784 -0.923399 -0.369765 -0.102996 
0.0454022 0.0674856 -0.0377363 -0.767623 -0.0667505 0.637416 
-0.0822858 0.102044 0.00233026 -0.781218 0.514834 0.353051 
-0.0808949 0.144399 -0.0123661 0.455813 -0.476357 0.751876 
0.0181756 0.148274 -0.00501345 -0.114159 0.407437 0.90607 
-0.0552286 0.0534193 -0.0155068 -0.0963378 -0.984358 -0.14751 
-0.00215238 0.124211 -0.0338189 -0.323835 -0.0334726 -0.945521 
0.0389822 0.142075 -0.00283816 0.00992192 -0.140734 -0.989998 
-0.0694054 0.142381 0.0117127 0.0338656 -0.905058 -0.423938 
-0.019736 0.186637 -0.0218801 0.241411 0.386308 0.890217 
0.0510284 0.126684 -0.0332201 -0.214845 -0.155381 0.964209 
-0.00956323 0.0602088 0.0200414 -0.933985 0.24523 -0.259873 
-0.0270389 0.053543 -0.00617038 -0.429048 -0.896337 0.111795 
0.0483046 0.0587254 0.0214622 0.24794 0.523134 -0.815387 
-0.067801 0.139263 -0.0193703 0.260621 -0.945968 0.192926 
-0.046393 0.0584848 0.0125852 -0.0150148 -0.473898 0.880452 
0.0729834 0.0616663 0.000634291 -0.819017 0.441043 -0.367005 
-0.0553023 0.107919 -0.0228683 -0.0391173 0.225367 0.973488 
-0.0756573 0.140953 0.0012637 0.0953613 -0.99269 0.073972 
-0.0165226 0.150306 -0.0107119 -0.0419041 -0.139595 -0.989322 
-0.066704 0.126176 -0.0086093 0.758083 -0.646514 -0.0856126 
-0.0983687 0.149146 0.0171751 0.725268 -0.508205 -0.46445 
0.0274599 0.0674717 -0.0379783 0.518423 0.816587 -0.253818 
-0.0267101 0.151143 -0.0274463 -0.689475 0.0524694 0.722407 
0.061704 0.0539252 -0.0176458 0.095362 0.99511 -0.0257185 
-0.0170557 0.119279 -0.0073559 0.748348 -0.423296 -0.510681 
-0.0288831 0.0914912 0.005979 -0.123949 0.631462 0.765436 
0.0929856 0.129882 -0.0109662 -0.596565 0.238414 0.766335 
-0.0396397 0.176259 -0.000645818 0.740643 -0.472942 0.477256 
0.0235156 0.0767361 -0.0331958 0.289137 -0.0496355 0.956 
0.0379171 0.0652032 -0.029537 -0.119421 -0.892851 -0.43423 
-0.0709996 0.148614 0.0114396 -0.219607 -0.383169 -0.897192 
-0.0268436 0.0671816 0.0238258 -0.473307 -0.682209 -0.557289 
-0.00103722 0.152692 -0.0200759 0.716484 -0.429945 -0.549361 
-0.0439088 0.159368 -0.0354275 -0.266514 0.524582 -0.808569 
0.0212128 0.0838457 -0.00369185 -0.514267 0.36929 0.774051 
-0.0423502 0.0614204 0.0136155 -0.175591 0.414275 -0.893053 
-0.0181426 0.0559829 -0.0133543 0.684852 -0.70893 -0.168511 
-0.0870112 0.0848502 0.00168524 0.941568 -0.173255 -0.288846 
0.0607546 0.0780432 0.00253994 0.260809 0.146521 -0.954207 
0.0328045 0.0614376 0.0169787 0.688772 -0.700372 0.187276 
-0.056379 0.134082 -0.00604965 0.57889 -0.717814 -0.38682 
-0.0345638 0.077287 0.0210193 0.0522792 0.12554 0.99071 
-0.0350577 0.0837056 -0.0287713 -0.318702 0.274285 -0.907302 
0.0607989 0.118679 -0.0101578 -0.861643 0.100386 -0.497487 
-0.083354 0.0674068 -0.0067188 0.772683 0.606039 0.188884 
-0.0467183 0.0735057 -0.0355364 -0.27138 -0.33436 0.902528 
-0.0194442 0.0664805 -0.0276512 0.546549 -0.612158 -0.571443 
-0.0424895 0.121196 0.000689197 -0.613544 0.145367 -0.776165 
-0.0317903 0.0735775 -0.0303282 -0.445245 0.356361 -0.82144 
0.0394211 0.076168 0.00971003 0.151712 -0.856784 -0.492853 
-0.0285954 0.185886 -0.0247704 0.303457 -0.855819 0.418914 
-0.0743318 0.0680477 -0.0320972 -0.284437 0.950698 -0.12357 
-0.0326988 0.0611471 0.0244111 -0.429094 -0.478526 0.766088 
0.0389995 0.100027 -0.0027926 0.189616 -0.153895 0.969723 
-0.032892 0.175543 -0.00612403 -0.265549 -0.721541 0.639423 
-0.0635846 0.0555397 -0.0165701 0.313371 0.816758 0.484463 
0.00516013 0.0973408 -0.0243321 0.818673 -0.407524 -0.404597 
-0.0254919 0.185798 -0.0267468 -0.369152 0.541473 -0.755337 
0.0462194 0.110529 -0.00225399 -0.236217 0.137189 -0.961967 
0.0705647 0.0677654 -0.00614188 -0.679104 -0.344992 0.647918 
-0.0663263 0.14627 0.0117163 0.158749 0.470532 0.867985 
0.0152452 0.123956 -0.0315009 -0.536934 0.518823 0.665225 
0.0490325 0.0681218 -0.0327994 0.725124 0.487477 -0.486375 
-0.0739238 0.0777726 0.0146396 0.248916 -0.0790829 -0.965291 
-0.0599268 0.175815 0.00555564 -0.0852119 -0.645249 -0.759205 
0.0731461 0.0738572 -0.00125393 0.244804 0.260371 0.933958 
-0.0635848 0.17777 0.00104191 -0.0979675 0.981841 0.162454 
0.0552658 0.141043 -0.00956695 -0.56975 -0.53 -0.62808 
0.0120126 0.121844 -0.0323217 -0.513927 0.385032 0.76657 
0.0327242 0.0540361 0.00235 0.68979 -0.498609 -0.524956 
-0.0252095 0.140654 -0.012209 -0.876258 0.318484 -0.36158 
0.0362957 0.0770171 0.0282869 -0.0547507 0.394769 -0.917148 
-0.0622122 0.0673081 -0.0342298 0.196808 -0.470463 0.860193 
-0.0602377 0.154235 0.00552959 -0.335887 0.941856 0.00936476 
0.060279 0.0535134 0.0113404 0.302346 0.951041 0.0640982 
0.0804678 0.0986761 -0.00601869 0.621759 -0.294575 -0.7257 
-0.0582889 0.0599113 -0.0288681 -0.302909 -0.904269 0.300904 
-0.0168868 0.122347 -0.0216849 -0.780822 0.260462 -0.56787 
0.0733211 0.0958971 0.0160372 -0.0354537 0.596794 0.801611 
-0.0550795 0.0660489 0.0371722 0.20203 0.220089 0.95433 
0.0101531 0.147954 -0.0312556 0.37289 -0.605798 0.702825 
0.0339277 0.127589 -0.0304993 0.407911 0.251429 0.87772 
-0.00921997 0.0686465 0.0168936 -0.76253 -0.444032 -0.470515 
0.0238256 0.0997171 -0.0285491 -0.680666 0.560047 -0.472272 
-0.0219263 0.152891 -0.0211309 0.810557 0.106546 0.575887 
0.0286554 0.157271 -0.0248247 0.00385637 -0.727351 0.686255 
-0.0663693 0.179647 -0.00553937 -0.0852055 0.970404 0.225958 
-0.0586148 0.130587 -0.00271831 0.536369 -0.693249 -0.481367 
0.0275313 0.149508 -0.0338219 -0.0165543 -0.638751 0.769235 
-0.0304827 0.147662 -0.00148314 0.0749002 0.508043 -0.858069 
-0.0183946 0.0775379 0.0132545 -0.663196 -0.151256 0.733002 
-0.0238396 0.0691352 -0.0372599 -0.69652 -0.365746 0.617325 
0.0686219 0.116417 -0.00295468 -0.603563 0.380778 0.700514 
-0.0719068 0.0698757 -0.0214626 -0.452464 0.475682 -0.754323 
-0.0474278 0.0564563 -0.007453 -0.526381 0.75068 -0.399253 
0.0244779 0.0589495 0.0219311 0.122457 -0.0129996 0.992389 
0.00388607 0.0903955 -0.00892891 -0.945481 0.231605 -0.228965 
0.0325841 0.0552414 -0.00650098 0.161767 -0.971067 0.175672 
-0.0180221 0.156086 -0.00950554 -0.670205 -0.742038 -0.0143354 
-0.0369762 0.134669 -0.00187111 0.448807 0.116442 0.88601 
-0.063832 0.166628 -0.0253032 -0.466421 -0.0585092 -0.882626 
-0.0204177 0.0539643 -0.00757673 -0.254808 0.966736 -0.0222513 
0.0523445 0.0740657 -0.0248973 -0.808811 -0.40054 0.430572 
-0.0283364 0.153173 -0.0338234 -0.82149 0.2844 -0.494238 
-0.0556707 0.172387 -0.0303725 -0.809599 0.156538 -0.565726 
0.0504374 0.0745956 0.0204827 -0.344775 0.597801 0.723715 
-0.0455778 0.119654 -0.0257749 0.0354501 -0.212635 -0.976488 
-0.0578983 0.094491 0.0165265 -0.223757 0.690099 0.688256 
-0.0624 0.145378 0.0055235 -0.152212 0.933531 0.32458 
0.0258211 0.156445 -0.0141139 0.00138982 0.960582 0.277992 
-0.0930038 0.153404 0.00293143 -0.0581724 -0.690664 0.720833 
0.0794197 0.0757587 0.00519473 -0.86315 0.36161 0.352435 
-0.0777205 0.143496 0.0162149 -0.296283 -0.309115 -0.903695 
-0.0910583 0.179971 0.00638803 0.242126 0.963308 -0.115816 
-0.0111962 0.0800929 -0.0297982 0.341944 -0.295078 -0.89219 
-0.104833 0.145283 0.000373077 -0.828552 0.395306 -0.396528 
-0.0292229 0.121615 -0.01607 0.389004 -0.385137 0.836866 
0.0832377 0.0956712 0.00906347 0.879478 0.263544 0.396311 
-0.0488625 0.0748429 -0.0358471 -0.276172 -0.294761 0.914792 
-0.0438497 0.185879 -0.0204877 0.792218 -0.374427 0.481866 
-0.00528802 0.135273 -0.0057185 -0.485706 0.472327 0.735525 
-0.0191909 0.0551905 0.0261272 0.0070569 -0.24664 0.969081 
0.0487133 0.0965031 0.0225157 -0.99613 -0.0738718 -0.0476173 
-0.0829385 0.14479 0.0182134 0.544964 0.499651 0.673322 
-0.00937125 0.0604713 0.0169036 0.934662 -0.338271 -0.109457 
0.0423442 0.121517 -0.0341044 0.123852 0.0692224 0.989883 
0.0652926 0.108914 -0.00625128 -0.756427 0.301194 0.580603 
-0.0579722 0.120397 0.00586011 -0.0241615 -0.431159 -0.901952 
0.0248795 0.0678499 -0.0437629 -0.544459 0.837348 0.0491204 
0.0124327 0.127447 -0.0342086 0.264288 -0.272793 -0.92506 
-0.0570497 0.0751741 0.0311599 -0.596637 0.79087 -0.136193 
0.0235194 0.056391 0.0169341 0.195974 0.938027 0.285832 
0.0740186 0.0635533 0.0163914 0.775848 -0.587609 0.229728 
-0.0391458 0.158345 0.0013287 -0.70468 -0.0957043 -0.703041 
-0.00439681 0.112654 0.00153266 -0.00877819 -0.130569 -0.9914 
-0.0527411 0.179819 -0.00631484 -0.17926 -0.925929 -0.332447 
0.0581606 0.11317 -0.00812463 -0.801299 0.276814 -0.530371 
0.0413936 0.0848547 0.0301073 0.326424 -0.248555 0.911958 
-0.0531075 0.0534923 -0.0169729 -0.0946126 -0.967881 -0.232928 
-0.0647328 0.127997 -0.0051973 0.756153 -0.555669 -0.345636 
0.0837089 0.0986383 0.00543227 -0.933883 -0.249435 -0.256212 
-0.0516707 0.178091 0.000293506 -0.185566 -0.855849 -0.482791 
-0.0220841 0.0629556 -0.0310608 -0.753127 0.559029 -0.346824 
-0.0235634 0.141454 -0.0169118 0.956311 -0.209491 0.203919 
0.040342 0.0566148 0.0160704 -0.48069 -0.536208 0.693843 
-0.0323425 0.05714 0.0182884 -0.695197 -0.718369 -0.0254427 
0.0474509 0.0628155 -0.0327452 0.0816868 -0.814481 -0.574412 
-0.0453256 0.129561 -0.0272892 -0.0803379 -0.0466888 -0.995674 
-0.0765036 0.070831 -0.0190773 0.475153 0.277359 0.835046 
-0.0780899 0.065331 -0.0379686 -0.325503 -0.583672 0.743892 
-0.0396684 0.0641036 0.0220541 0.526522 0.775251 -0.348941 
0.0820573 0.135552 -0.01787 -0.412412 -0.0599627 0.909022 
-0.0326425 0.0658085 -0.0385869 0.0798722 -0.0879505 0.992917 
-0.0489844 0.145943 0.000696643 0.248157 0.9174 0.311121 
-0.0627421 0.0536816 0.00127768 0.256357 0.954805 -0.15043 
-0.0606638 0.0896864 -0.0318141 -0.311446 -0.648979 0.694138 
-0.00809991 0.066239 -0.00474378 0.879274 -0.449952 0.156271 
-0.0213692 0.152857 -0.0252836 0.0603059 -0.359223 -0.931301 
-0.00854968 0.0631985 0.0183079 -0.972873 0.138292 -0.185453 
-0.054111 0.088594 -0.0255528 0.533761 0.843283 -0.0630284 
0.0438705 0.105842 0.0196307 0.502195 0.717555 0.482612 
-0.0903974 0.145826 -0.00719929 -0.353773 0.391168 -0.849607 
-0.0619114 0.0642613 -0.0347653 0.372131 0.197118 0.907008 
-0.0972556 0.139708 -0.00693692 -0.00240288 0.388739 -0.921345 
0.0355397 0.108244 0.0126289 -0.794064 0.243236 0.557045 
-0.0392522 0.144526 -0.0320166 0.0590784 0.683458 0.727595 
-0.0662406 0.165206 0.0131565 0.264049 -0.400426 0.877461 
-0.0491848 0.0705251 -0.035892 0.0789776 0.362062 0.928802 
0.0208292 0.126335 -0.0100212 -0.398826 0.7424 -0.538312 
-0.0790281 0.0999214 0.00900244 0.581505 -0.356333 -0.731354 
-0.0845792 0.0767496 -0.012812 0.907139 0.191911 0.374525 
0.0649021 0.0951479 -0.00165168 0.817284 0.467211 0.337284 
-0.00255741 0.142379 -0.00972638 0.604346 -0.684749 -0.407289 
-0.0731052 0.165346 0.0142521 0.0995351 -0.45385 0.885502 
-0.0819073 0.151924 0.00520121 -0.0479078 -0.99734 -0.0549399 
-0.0632994 0.0617133 -0.0310254 -0.413448 -0.903433 -0.113445 
0.0295239 0.154636 -0.0292299 -0.0881848 -0.775079 0.62568 
-0.0888081 0.150009 0.0175252 0.296743 0.782166 0.547869 
0.0401538 0.055545 0.0150796 0.428785 0.584604 -0.688754 
-0.0696669 0.177396 -0.013497 -0.148257 0.905869 -0.396763 
0.0617384 0.127143 -0.0121176 -0.861847 -0.130962 -0.489969 
0.0315336 0.0848132 0.0205721 -0.641495 -0.379477 0.666695 
0.0703084 0.0704836 0.0248746 -0.277914 0.173131 -0.944875 
-0.00931888 0.110943 0.00154338 -0.00886497 0.230783 0.972965 
-0.0883362 0.18094 -0.00146011 0.402873 -0.818139 0.410295 
-0.0423631 0.178011 -0.0317723 -0.59815 -0.134531 -0.790012 
0.0222426 0.103058 -0.0175559 -0.837327 0.546684 0.00453927 
-0.0429492 0.178534 -0.00525101 -0.425208 0.890355 -0.162687 
-0.0405207 0.0563321 0.0107189 -0.0972335 0.623666 -0.77562 
-0.0338279 0.174945 -0.00870998 -0.289888 -0.957055 0.00326369 
0.0376807 0.152021 -0.0302739 0.155817 0.693275 -0.703627 
0.0275214 0.0555925 0.0178879 -0.101925 -0.985697 -0.134215 
0.0288073 0.127329 -0.0277028 -0.0754939 -0.715675 -0.694342 
-0.0216494 0.0802982 -0.035944 -0.592747 -0.105607 0.798435 
-0.00162687 0.0815741 -0.00371017 0.827519 -0.306512 0.470386 
0.077921 0.0952265 0.0153657 -0.47078 -0.433085 -0.768638 
0.0560423 0.116813 -0.0302847 0.671503 -0.233062 -0.703396 
-0.0724463 0.0766754 -0.0225001 -0.621062 -0.395321 -0.676759 
0.0822128 0.137453 -0.0173271 0.241753 0.344081 -0.907284 
-0.0478618 0.166982 0.00535879 -0.249084 -0.534209 -0.807823 
0.048696 0.0543181 -0.00464598 -0.334417 -0.870332 0.361508 
-0.0497508 0.178281 -0.0312875 -0.562007 0.800511 0.208161 
0.0428916 0.0664366 -0.0399437 -0.490286 -0.318826 0.811153 
-0.000550225 0.0921343 -0.0280008 -0.565448 0.354157 0.744877 
-0.038684 0.0632653 0.0168457 -0.662954 -0.677381 -0.318821 
0.0536878 0.136734 -0.00571869 0.583936 0.326697 0.743161 
-0.0339696 0.0951559 -0.0159878 -0.665058 0.50214 -0.552768 
-0.0642157 0.180154 -0.00716839 -0.215438 0.970537 0.107905 
-0.0743214 0.166779 -0.0147105 -0.664964 0.666509 -0.337029 
0.0725642 0.0611346 0.0135893 -0.772864 0.631293 -0.064423 
-0.0659681 0.107142 -0.0220613 -0.128194 -0.000918325 -0.991749 
0.00729625 0.155718 -0.0228229 0.352623 -0.216657 0.910339 
0.0449933 0.149606 -0.00876527 -0.327716 -0.770585 -0.546627 
-0.0448787 0.120208 0.0022637 -0.58248 0.0870549 -0.80817 
0.0610238 0.122359 -0.0107535 -0.794351 -0.0156095 -0.607259 
0.0242028 0.0972757 -0.0307014 0.580844 -0.34714 0.736284 
0.0523427 0.122043 -0.0328638 -0.355835 0.0460551 0.933413 
-0.0567276 0.145076 -0.007205 0.0906739 -0.993347 0.070993 
0.0557846 0.0729374 0.0238374 0.322589 -0.248317 -0.913387 
0.0501739 0.143571 -0.0299033 0.444522 0.384085 -0.809246 
0.0118544 0.138415 -0.0349665 -0.11033 0.203424 -0.972854 
0.0758495 0.122368 -0.0174506 -0.785653 0.272816 0.555267 
-0.0838995 0.0652532 -0.0214445 -0.876017 0.434012 -0.210302 
-0.00463699 0.0715207 -0.0122983 -0.881383 0.453181 0.133379 
0.0658776 0.0575052 0.0183213 -0.487068 0.733629 -0.47387 
-0.000661785 0.0784512 -0.0104693 -0.945406 0.317849 -0.0719729 
-0.056435 0.144832 -0.0100745 -0.0022471 -0.990783 0.135442 
-0.0336291 0.0943349 -0.00288031 0.333784 -0.940651 -0.0613555 
-0.0439758 0.0586181 0.0125278 0.23268 -0.496821 0.83608 
-0.0800633 0.166249 0.0145212 0.408725 0.757609 -0.508894 
-0.0852841 0.0833001 -0.0129148 -0.868871 0.000938213 -0.495038 
-0.0507247 0.0890271 -0.022299 0.291081 0.74802 -0.596438 
-0.0160699 0.0619674 -0.0211717 -0.64846 0.634365 0.42081 
-0.0151985 0.125013 -0.022598 -0.78949 0.4008 -0.464828 
0.0482156 0.134432 -0.00282597 -0.299933 -0.258491 -0.918271 
-0.0681647 0.0734572 -0.0259108 0.520337 0.846242 0.114554 
-0.0483136 0.0555739 -0.00246203 -0.0717753 0.995944 0.0542578 
0.0561127 0.0581171 -0.0270789 0.345107 -0.499939 -0.794331 
-0.0590669 0.10872 -0.0229563 0.00339443 -0.151488 -0.988453 
0.0028238 0.0980575 -0.0280035 0.691104 -0.319584 -0.64826 
-0.0336965 0.0890138 -0.0260201 -0.568635 0.501198 -0.652269 
0.0406815 0.148908 -0.00637662 0.279446 0.608212 0.742959 
-0.019948 0.0761177 0.0113799 0.767645 0.11472 -0.630524 
-0.0346948 0.137875 -0.00324655 -0.428782 0.0316476 -0.902854 
-0.0216771 0.136483 -0.0236427 0.194069 -0.450346 -0.871508 
-0.0550258 0.146386 0.00126667 0.0418781 -0.981187 0.188461 
-0.0771939 0.149799 0.0118573 -0.684527 -0.546293 -0.482687 
-0.0160962 0.0916217 0.0067513 0.742241 -0.622372 -0.248458 
-0.00803971 0.130094 -0.00437196 -0.639847 0.334498 0.691887 
-0.0822022 0.105617 -0.0103431 -0.903084 0.306158 -0.301175 
-0.0454515 0.13722 -0.000846085 0.148496 -0.400554 -0.90416 
0.0320775 0.11753 -0.0103142 -0.882272 0.293135 0.368331 
-0.0792494 0.106527 -0.0153345 0.758377 -0.415632 0.50211 
0.0298541 0.0718566 -0.0416962 0.431054 0.394643 -0.811449 
0.0787572 0.0801613 8.45842e-06 0.903311 -0.17541 -0.391485 
0.0402808 0.154106 -0.0265391 0.178536 0.799422 -0.573628 
-0.0296674 0.0964594 -0.00305786 0.501345 -0.815564 -0.288979 
0.0232944 0.0550267 -0.0189315 0.325507 0.90038 0.288722 
-0.0637891 0.162551 -0.00338578 -0.171808 -0.97767 -0.121006 
0.00968615 0.107684 -0.0246115 -0.783227 0.466386 0.411143 
-0.0558771 0.142091 -0.0262599 -0.24639 -0.586029 -0.771921 
-0.053646 0.120914 0.00538096 -0.153907 -0.357013 -0.921333 
-0.0240916 0.0534649 0.0233705 -0.187314 -0.93214 0.309884 
-0.0467958 0.0999885 -0.0148072 -0.56231 0.309676 0.766752 
-0.00535302 0.124513 -0.00124856 -0.17048 0.192875 0.9663 
0.0755912 0.117095 -0.015614 -0.652542 0.278934 0.704546 
0.0613416 0.129647 -0.0122569 0.823476 0.122233 0.554027 
0.0163002 0.0810448 -0.00741446 -0.81499 0.163275 0.555996 
-0.0464483 0.163062 -0.0340328 0.542248 0.306826 0.782192 
-0.0494766 0.0601375 -0.0382298 0.222286 0.0908343 0.970741 
-0.00214345 0.0958825 -0.0314174 -0.469219 0.407976 0.783192 
0.0421728 0.0858739 0.0164242 0.848181 -0.178186 -0.498838 
-0.0586264 0.0644641 0.0375747 -0.0688139 0.0724687 0.994994 
-0.079024 0.105607 -0.0161707 0.689445 -0.305569 0.656729 
-0.00770303 0.120792 -0.0006252 0.202097 -0.295881 -0.933601 
0.0307576 0.0677485 0.0239509 -0.203489 -0.335825 0.919681 
-0.0464137 0.132445 -0.0272895 0.290279 -0.0304591 0.956457 
0.0696812 0.0764333 0.000922399 -0.38699 0.0336042 -0.921472 
-0.0389195 0.146222 -0.03613 0.506568 0.706613 0.494052 
-0.0898232 0.179542 0.0102832 0.374492 0.918202 0.129074 
-0.0797757 0.166737 -0.00134299 0.317835 0.897227 -0.306536 
-0.0547663 0.0584213 -0.0292565 0.370964 0.875349 -0.31008 
0.0368204 0.101766 -0.0343602 0.0330819 -0.114354 0.992889 
-0.0820865 0.0666513 0.00116314 -0.798916 -0.558672 0.222754 
0.0412829 0.10435 0.0243022 -0.492374 -0.786168 -0.373508 
-0.0988565 0.146337 0.00993099 0.122161 0.984306 -0.127351 
0.0499313 0.0689559 -0.029432 0.593874 0.778786 -0.202004 
0.00759174 0.0598098 0.0251111 -0.465995 0.293079 0.834837 
-0.0296173 0.0570662 0.0113418 -0.477321 -0.830667 -0.286629 
0.0417983 0.0689587 0.01394 -0.851469 -0.494832 0.173615 
-0.0338626 0.148565 -0.0357886 0.390893 -0.688305 -0.611096 
-0.0667038 0.162508 0.00129695 0.179903 0.973391 0.14193 
-0.0424522 0.0945723 0.000519416 0.360384 0.917791 0.16668 
-0.0601235 0.142106 -0.0246752 -0.446911 -0.133151 -0.884614 
0.0370737 0.114716 0.0122543 0.816098 -0.308764 -0.488517 
0.0422424 0.0743743 -0.0323942 -0.339972 0.106431 0.934394 
-0.0265367 0.14617 -0.00303096 0.74962 -0.199854 0.630975 
-0.0554536 0.180682 -0.0141408 -0.0812057 0.990124 -0.114277 
-0.0688107 0.105817 -0.0216426 0.220929 -0.0627066 0.973272 
-0.0537121 0.141435 -0.0141471 0.775098 -0.624175 0.0981234 
-0.0757114 0.147857 -0.0138861 -0.562539 0.675975 -0.476034 
-0.0151244 0.188279 -0.0299128 -0.406849 0.466348 -0.785489 
0.0174506 0.128058 -0.00611509 -0.601467 0.516478 -0.609498 
-0.0203697 0.0573293 0.00374324 0.55289 -0.486966 0.676148 
0.0478392 0.110529 -0.0335858 0.216011 -0.112489 -0.969889 
-0.0840102 0.0778689 0.0067599 -0.836637 0.0983724 0.538852 
0.0516727 0.0961938 -0.0189108 0.839679 -0.538282 -0.0720459 
0.0252266 0.156241 -0.0261718 -0.00851286 -0.906753 0.421576 
-0.0308851 0.128235 -0.00975835 -0.873977 0.343853 -0.343408 
0.0325311 0.0542559 -0.0124139 -0.0408063 0.958576 -0.2819 
-0.056453 0.053488 0.0024374 0.175817 -0.957355 -0.22926 
-0.0320828 0.101285 -0.0145921 0.485202 -0.49839 0.718462 
0.0376094 0.10627 0.0190636 -0.164796 0.984167 -0.0652552 
0.0529701 0.0570892 0.0211271 -0.122174 -0.647675 0.752058 
-0.0241443 0.17286 -0.0426163 -0.155139 0.810955 0.564166 
-0.0607793 0.0533283 0.00122807 -0.109578 -0.991773 0.0661724 
-0.018413 0.157717 -0.0101823 0.801338 -0.423163 -0.422835 
0.0402729 0.102951 0.0105766 0.0855443 -0.625233 -0.775735 
0.0698189 0.105031 0.00748239 0.562015 -0.477438 -0.675421 
0.00713225 0.106195 -0.027343 -0.729697 0.348346 0.588386 
-0.0257238 0.0758231 0.0110831 -0.586778 -0.481887 -0.650751 
-0.0369227 0.0571854 0.0108145 0.125137 -0.593536 0.795019 
0.032056 0.0878354 -0.00228028 -0.00731964 -0.317598 -0.948197 
-0.0859038 0.0966029 -0.00644577 -0.997961 -0.0474575 -0.0426802 
0.0160649 0.126829 -0.00613726 0.465437 -0.606156 0.644937 
-0.086512 0.14922 0.0174061 -0.341057 -0.823074 -0.454124 
0.00899667 0.103451 -0.0216655 0.812342 -0.436831 -0.386367 
-0.0581784 0.107536 0.00942896 0.230597 0.368032 0.900765 
0.0467405 0.059701 -0.0232867 0.46172 0.864633 0.19805 
0.0278473 0.084687 -0.0345888 0.0863794 0.0610247 0.994392 
0.00064998 0.15182 -0.0182376 -0.138711 0.3726 0.917566 
0.0833215 0.101428 0.000479103 0.958369 0.169766 -0.229584 
0.036193 0.0600412 -0.000675579 -0.879599 0.442209 -0.175378 
-0.0636537 0.162296 -0.00175486 0.166092 0.973842 0.155062 
0.033981 0.141703 -0.00251296 0.0355493 -0.0927336 -0.995056 
0.047624 0.0832942 -0.00760781 0.93778 -0.00892 0.347114 
0.0432847 0.0883844 -0.00695725 0.725769 -0.279784 0.628475 
0.0534114 0.0787207 0.0112412 -0.532142 0.84398 0.0672549 
0.0283803 0.0940066 -0.00451744 -0.426605 0.107438 0.898034 
-0.0823711 0.0979916 0.00622624 -0.866724 0.1177 0.484702 
-0.031695 0.0936866 0.00257243 -0.0833606 0.886585 0.454992 
0.0649783 0.131749 -0.0200542 0.470901 -0.168826 -0.865881 
-0.0458376 0.139365 -0.00178609 -0.278063 0.298426 0.913029 
0.0184753 0.0938569 -0.0120663 -0.808181 0.431477 0.400838 
0.0665632 0.106589 -0.0101823 -0.276927 -0.631517 -0.724222 
-0.0590967 0.104647 0.0107648 0.196742 0.198566 0.960138 
-0.0826516 0.0666366 -0.0362157 0.50951 -0.858616 0.0563688 
0.0801152 0.11213 -0.00712364 -0.928381 -0.117033 0.352721 
0.00913279 0.15161 -0.0111071 -0.415803 0.806299 0.420701 
-0.0165735 0.122267 -0.00925543 -0.811573 0.38726 0.437468 
-0.0284748 0.14997 -0.0348091 -0.828201 -0.469223 -0.306452 
-0.000947489 0.152844 -0.0214447 -0.672193 0.480641 -0.563152 
0.0498363 0.0541764 0.0126378 0.163241 -0.875773 -0.454285 
-0.086871 0.0921933 5.04634e-05 -0.923949 0.299813 0.237552 
0.0598377 0.111599 -0.0224383 0.908138 -0.290371 -0.301612 
0.038011 0.0900613 -0.00357407 0.378767 0.0199323 0.925278 
-0.0485853 0.154123 -0.0304379 0.717274 0.0347625 0.695923 
-0.0538435 0.107028 -0.0224973 0.207015 -0.165168 -0.964295 
0.037878 0.0601573 -0.0493628 -0.637274 0.216547 0.739587 
-0.0543561 0.0766512 0.029164 0.417406 -0.907632 -0.0444515 
-0.0719788 0.149913 0.00496076 -0.103175 -0.644828 -0.757332 
-0.0282465 0.130815 -0.0230958 0.402697 -0.344415 -0.848065 
0.0785551 0.115704 -0.00961795 -0.918914 -0.241988 0.31151 
-0.0625544 0.160986 -0.0139051 -0.0990805 0.893702 -0.437585 
0.0528475 0.110011 -0.00455069 -0.484993 0.304079 -0.81995 
-0.0578748 0.156172 -0.0128262 -0.555607 0.831382 0.0102815 
0.00879138 0.142301 -0.0339051 0.24229 -0.288485 0.926322 
0.0319487 0.125193 -0.0278548 0.782158 0.349012 0.516158 
-0.0821547 0.0878983 -0.0174503 0.681609 0.0935496 0.725712 
-0.027267 0.163095 -0.0356118 0.66442 0.0859297 0.742403 
0.0232418 0.123291 -0.0199033 0.356258 -0.930697 0.0829629 
0.0671252 0.0906167 0.018212 -0.41641 0.523008 0.743684 
-0.0104328 0.0710362 -0.0238579 -0.569252 0.448715 0.688917 
-0.0482853 0.0830013 -0.0290614 0.620562 0.712979 -0.326441 
-0.0619101 0.0533447 -0.00887621 0.0288602 0.999359 0.0211758 
0.0369393 0.103046 -0.00252296 0.165421 -0.048402 -0.985035 
0.0213092 0.0587033 0.0103352 0.201874 0.943286 0.26355 
-0.0306077 0.172831 -0.0356004 -0.534769 -0.386394 -0.75148 
-0.0311537 0.142109 -0.0291406 0.261444 -0.0486575 -0.963991 
0.0217408 0.0933197 -0.0307867 0.569717 -0.31973 0.757097 
-0.093981 0.152834 0.00227625 -0.291592 -0.585162 0.756677 
0.0887702 0.137831 -0.0145092 -0.496176 -0.150621 0.855057 
-0.0332553 0.143892 -0.0299458 0.255431 -0.21733 -0.942084 
0.0392301 0.0933529 -0.0339369 -0.355343 0.126797 0.926096 
-0.0875705 0.167678 0.0128357 -0.36994 -0.791171 0.487025 
0.0506014 0.0918342 -0.0137109 -0.702503 0.373342 0.605892 
-0.0880325 0.169121 0.0107085 -0.765336 -0.467866 -0.441998 
0.0188229 0.0575194 -0.0081653 -0.722851 -0.652266 0.228111 
-0.059473 0.118843 -0.0231965 0.210304 -0.0563213 0.976012 
0.0339271 0.0529574 0.00750735 -0.185928 -0.951494 0.245133 
0.0708346 0.126514 -0.019984 0.415602 0.0983384 0.904215 
0.055433 0.0717125 -0.0188189 0.684259 0.728325 0.0364943 
0.0919154 0.146668 -0.00464419 0.15501 -0.359774 0.920073 
0.0268824 0.1567 -0.0148285 -0.0266175 0.96467 0.262114 
-0.0433843 0.11752 0.000583974 0.651684 -0.260198 0.712463 
0.0796139 0.126894 -0.0108959 -0.150002 -0.142199 0.978406 
0.0235283 0.104714 -0.0157929 -0.847412 0.465464 0.255412 
0.0163115 0.118352 -0.0161033 0.682307 -0.640995 0.351544 
-0.0536934 0.134318 -0.0229664 -0.616047 0.215231 -0.757734 
0.0326278 0.152824 -0.031024 0.102146 0.796824 -0.595515 
0.034233 0.056697 -0.0458935 0.371735 0.779379 -0.504363 
-0.03022 0.168418 -0.0247465 -0.42509 -0.478418 0.768384 
-0.029161 0.0952136 -0.0243968 0.618464 -0.632956 0.465691 
-0.0642905 0.148607 -0.0218173 0.407782 0.286735 0.866889 
-0.0605698 0.0776888 -0.03553 -0.269969 -0.265029 -0.925676 
-0.0774327 0.147836 -0.00904456 -0.0718291 -0.984726 -0.158607 
-0.0789408 0.111162 -0.0117859 0.831581 -0.425176 0.357349 
-0.0399272 0.0701102 0.0271994 -0.0391154 -0.459831 0.887145 
-0.0856567 0.0632319 -0.0302589 -0.733416 -0.217533 -0.644035 
0.0207282 0.0585455 -0.0225669 0.550313 0.672094 0.495424 
0.00737705 0.153642 -0.0173028 -0.245679 0.67214 0.698477 
-0.0400508 0.165201 0.00231894 -0.441967 -0.313375 -0.840512 
-0.0787493 0.147887 -0.00871526 -0.0270254 -0.999201 -0.02944 
-0.0148638 0.060306 -0.0171233 -0.747691 0.541524 0.38433 
-0.0498879 0.118999 0.00473977 0.343426 0.0682304 0.936698 
0.0460361 0.140655 -0.0332352 0.147732 0.138 -0.979352 
-0.0798992 0.0656448 0.00558145 -0.815168 -0.398951 0.419928 
-0.0818084 0.10795 -0.00625143 0.755984 -0.640943 0.132967 
0.055661 0.0639567 0.0246831 -0.11001 -0.242013 0.964016 
-0.0202914 0.166207 -0.0057711 0.257303 0.802556 0.538237 
-0.0196553 0.182879 -0.0221306 -0.482721 0.444102 -0.754821 
-0.0484446 0.0936729 0.015254 -0.432718 -0.867753 -0.244459 
0.0173236 0.0621404 -0.0220964 -0.727632 -0.57352 -0.376332 
0.0311649 0.0581975 0.0244741 -0.625676 0.18358 0.758174 
-0.0491503 0.0737523 0.0325843 -0.437574 -0.163257 -0.884238 
-0.104188 0.14719 0.00241978 -0.70383 0.685951 -0.184644 
0.0378585 0.100497 -0.00260006 0.0140544 -0.118573 0.992846 
0.0212901 0.0971813 -0.0108206 0.721691 -0.42326 -0.547735 
-0.0595101 0.123474 0.0037596 -0.186335 0.593031 0.783322 
0.0576867 0.123208 -0.00612166 -0.762356 -0.0901163 -0.640853 
0.0361966 0.0568952 -0.0444785 0.134419 0.788219 -0.600535 
0.0248495 0.151859 -0.00604462 0.0172893 -0.601671 -0.798557 
-0.00768407 0.0911375 0.00411744 0.481302 0.103107 0.87047 
-0.0436489 0.0536723 -0.0156233 -0.108 0.914662 -0.389525 
0.00173734 0.0933912 -0.0266816 -0.696349 0.240542 0.676193 
-0.0239191 0.106417 -0.00868488 0.86088 -0.41624 -0.292626 
-0.0328371 0.0954558 -0.017473 0.719987 -0.629584 0.291964 
-0.0534866 0.108657 0.00782524 0.362377 0.316127 0.876782 
-0.0844197 0.149536 0.0157312 -0.380636 -0.630951 -0.67603 
0.0242197 0.124822 -0.0246594 -0.366481 0.84987 0.378699 
-0.090369 0.174066 0.0143736 0.727659 0.662283 -0.178588 
-0.0724831 0.0685996 -0.0248393 -0.321823 0.938892 -0.122116 
-0.0624233 0.0622335 0.0366455 -0.355435 -0.236867 0.90419 
0.0715838 0.0604232 0.0156828 0.717809 -0.672762 0.179281 
-0.0890714 0.181043 0.00139164 0.60176 -0.762457 -0.237789 
-0.0652924 0.0549882 0.0061729 -0.111411 -0.933481 0.340881 
0.00804171 0.105968 -0.00819584 0.860049 -0.218714 0.460955 
0.0379551 0.0988732 0.0264597 0.918737 -0.304151 -0.251824 
-0.0884958 0.160806 -0.00663125 -0.954987 -0.129788 0.266748 
0.0342008 0.0621762 -0.0273848 -0.121144 0.50119 0.856815 
0.0569094 0.0557259 -0.024493 0.0683919 0.857924 0.509205 
-0.0478039 0.0792263 0.0243917 0.0649766 0.9977 -0.0193025 
-0.0285628 0.0872965 0.00828028 0.24007 0.550647 0.799471 
-0.0210446 0.0650658 0.0211594 0.410587 0.772755 0.484012 
0.0391902 0.118405 0.00696334 -0.700758 0.188583 0.688023 
0.0419787 0.0758126 -0.033211 0.266978 -0.582529 -0.767713 
0.0641597 0.0900962 0.0126412 0.887123 -0.451436 -0.0960091 
-0.0444865 0.0864887 -0.024024 -0.07592 -0.772823 0.630064 
-0.023807 0.105797 -0.00737457 -0.860263 0.454404 0.231224 
0.0422019 0.14756 -0.00574422 -0.202142 -0.506914 -0.83796 
-0.0969293 0.166866 -0.00907907 0.786915 0.494924 0.368532 
0.0415757 0.0670132 0.0140136 -0.545425 0.55525 -0.627861 
-0.071731 0.152457 -0.00153695 -0.217299 0.975364 -0.0380287 
-0.0109378 0.125319 -0.00420871 0.697533 -0.389983 -0.601133 
0.0353031 0.118388 -0.0301572 -0.627638 -0.0349754 -0.777719 
0.0397495 0.123857 -0.0331684 -0.45469 -0.0357098 -0.889934 
0.0116097 0.0598596 0.0265528 0.426553 0.0587537 0.902552 
0.00293249 0.155063 -0.0205037 0.506334 0.709796 0.48971 
0.0111541 0.118348 -0.0310504 -0.667049 0.477478 0.571893 
-0.0480939 0.140636 -0.0262679 -0.43771 -0.359986 -0.823905 
-0.036923 0.0903082 -0.0208798 0.540524 -0.782769 0.308395 
-0.0734918 0.149173 -0.00798215 -0.462535 0.548468 -0.696595 
0.0366041 0.106041 -0.0338755 0.314279 -0.228437 0.921437 
-0.0282908 0.179928 -0.0258807 0.139031 0.446896 0.883716 
-0.079967 0.140198 -0.000981142 -0.174571 0.98443 -0.0205541 
-0.0477079 0.0839243 0.0210749 -0.00976631 -0.0361851 -0.999297 
0.0683906 0.0628362 0.0228398 0.441981 -0.443869 0.779509 
-0.0540442 0.112345 0.00738418 -0.313237 -0.136525 -0.939811 
0.0183027 0.0574749 -0.0156762 -0.78612 -0.576353 -0.223232 
-0.0300469 0.185233 -0.00328514 -0.483093 -0.26745 -0.833722 
0.0568131 0.0698183 -0.00745072 -0.612229 -0.562622 0.555546 
-0.0892204 0.146446 -0.00745384 -0.353262 0.340165 -0.871489 
