ply
format ascii 1.0
element vertex 792
property float x
property float y
property float z
property float nx
property float ny
property float nz
end_header
-0.0834988 0.10269 -0.00573423 -0.911233 0.351658 -0.0332708 
-0.0470623 0.115764 0.00368689 0.570856 -0.104112 0.803807 
-0.0853001 0.142766 0.0157383 -0.261813 -0.844567 -0.306551 
0.0199169 0.0584884 0.0123636 -0.147275 -0.943717 -0.188291 
-0.025115 0.0654291 0.0240963 0.430488 0.489462 0.749357 
-0.0573927 0.154479 0.00236761 -0.425987 0.814213 -0.302419 
-0.0189983 0.16717 -0.0105924 0.660524 0.419748 -0.110567 
0.0507609 0.0887213 -0.0100348 0.776299 -0.425586 -0.0326564 
0.0215373 0.123164 -0.023808 0.537091 -0.780147 -0.283766 
-0.00801095 0.188141 -0.0306094 0.422029 -0.747717 -0.420679 
0.0178656 0.131692 -0.0340972 0.206076 -0.264209 -0.9391 
0.0552462 0.127247 -0.00454954 0.568172 0.0317476 0.818888 
-0.0407676 0.178149 0.00102028 -0.373252 0.383486 0.726578 
0.0684546 0.105142 -0.00999384 -0.44742 -0.581497 -0.661864 
-0.0528782 0.179149 -0.00422957 0.105853 0.961458 0.190436 
0.0687573 0.0562796 -0.000156305 0.448121 -0.684581 0.522998 
-0.0867936 0.170493 8.19821e-06 -0.296929 -0.783876 0.488776 
0.053047 0.0786769 0.00846268 -0.420637 0.89083 0.100627 
-0.0366691 0.180833 0.00142979 -0.0434391 0.308145 0.751102 
-0.0601983 0.0566249 0.0347341 -0.232426 -0.669698 0.702681 
0.00509422 0.0608759 0.0123499 -0.255886 0.576661 -0.57737 
0.0233513 0.0849931 0.00971374 -0.614992 0.753451 0.189035 
-0.0404643 0.0599194 0.0321947 0.926176 0.0625232 0.121319 
-0.0529873 0.0813384 0.020564 -0.16736 0.139573 0.936259 
-0.0221002 0.121755 -0.0147853 -0.479672 0.290195 0.724036 
-0.0849694 0.070488 -0.00234375 -0.976862 -0.177686 0.0950922 
-0.0839852 0.0704111 0.00259575 -0.932947 -0.181158 0.301583 
0.0704601 0.0838217 0.000444724 -0.434631 -0.194115 -0.865877 
0.0115144 0.152181 -0.0275124 -0.30801 0.761728 -0.565958 
0.0119167 0.158373 -0.0197224 -0.407079 0.427262 0.701782 
-0.0215867 0.160839 -0.0222921 0.616524 0.0940205 0.690273 
-0.0314386 0.0560772 0.0171178 -0.749087 -0.622358 -0.125074 
0.06504 0.134247 -0.0197666 0.551525 0.252013 -0.755838 
-0.0520999 0.0791589 0.024106 -0.102719 0.925519 0.318515 
-0.0254771 0.101746 -0.00481989 -0.676138 0.637763 0.323664 
-0.0906112 0.163415 -0.0038627 0.173561 -0.155768 0.810105 
0.0550203 0.0550137 -0.0212436 -0.301045 -0.927243 -0.189393 
0.0528408 0.100951 -0.0262692 0.804634 -0.439587 -0.391762 
-0.064806 0.143206 -0.0178818 0.462012 -0.563487 0.612314 
0.0572425 0.107673 -0.024864 0.786903 -0.439028 -0.423266 
-0.0506856 0.0579437 0.0180321 0.564738 -0.541189 -0.593946 
-0.0366178 0.178414 -0.00748636 0.193232 0.135682 -0.89703 
-0.0605799 0.0542522 0.0058682 -0.256047 -0.901669 0.340255 
-0.02066 0.0755227 0.0104667 -0.602602 -0.0648172 0.724587 
-0.0224966 0.18503 -0.0204559 0.306137 0.169827 0.917625 
-0.0782207 0.0621262 0.00422189 -0.607577 -0.741642 0.266547 
-0.0508757 0.14116 -0.0053807 -0.679707 0.362968 0.586457 
-0.0257893 0.0530868 0.0143357 -0.0181075 -0.98884 -0.0146316 
-0.0177797 0.188663 -0.0243298 -0.132023 0.908494 0.324106 
0.0813571 0.0776328 0.00834178 0.929467 -0.339748 -0.114276 
0.0131854 0.0750163 -0.0106424 -0.892536 -0.0158498 0.426945 
0.00078093 0.0974597 -0.000987574 0.701818 -0.22266 0.66389 
0.000703615 0.0850883 -0.0214736 0.821524 -0.453639 -0.322683 
0.0827483 0.136485 -0.00798633 -0.0608174 -0.364136 0.915077 
0.0665237 0.107745 -0.0111874 -0.265056 -0.602285 -0.71605 
0.0638715 0.0729267 -0.000282521 -0.037803 0.682589 -0.57706 
-0.0838224 0.0701914 -0.00939168 -0.81205 -0.345529 -0.454813 
-0.0448322 0.142835 -0.00251907 -0.341269 -0.00159943 0.858402 
-0.0396668 0.118013 -0.0231395 0.443943 -0.536713 -0.701809 
-0.0469405 0.096686 -0.0142307 0.600468 -0.0148098 -0.779617 
-0.0585453 0.0659517 -0.0355617 -0.186469 0.364118 -0.896447 
-0.0287865 0.181856 -0.0263961 -0.266122 -0.118158 -0.932447 
-0.0372902 0.0956275 -0.00896991 0.243987 0.701722 0.598358 
0.0165929 0.15156 -0.0309353 -0.136194 0.726598 -0.663506 
-0.0218363 0.0800451 0.00996262 -0.0794011 0.231346 0.890208 
-0.0595538 0.144348 0.0105127 0.289155 0.0060311 0.887544 
-0.0639649 0.177963 -0.000534076 -0.0549185 0.966592 0.158686 
-0.004267 0.078557 -0.023376 0.704383 -0.470125 -0.519153 
-0.0249855 0.0531345 0.0158509 0.0358392 -0.994477 0.010863 
0.0549662 0.151103 -0.0209979 0.465875 0.220228 -0.77162 
0.0393313 0.0598926 -0.0425013 0.652693 -0.711456 0.118829 
-0.0321695 0.136803 -0.0285159 0.254538 -0.230885 -0.934059 
-0.0869861 0.158887 -0.00761124 -0.317857 -0.705899 -0.459537 
0.0472223 0.0777573 0.00443987 -0.032186 0.960684 0.227087 
0.0425288 0.070065 -0.0383526 -0.021526 0.42842 -0.875828 
-0.0637325 0.0618587 -0.0292449 -0.304973 -0.927464 0.0819882 
-0.100924 0.153839 0.00938573 -0.568689 -0.708494 0.0460845 
0.0261882 0.0658094 0.0166118 -0.786874 0.520974 -0.232364 
0.0224669 0.127057 -0.0291584 0.382736 -0.645602 -0.655648 
-0.0212475 0.117912 -0.0133118 -0.731135 0.209571 0.612742 
0.0329855 0.115366 -0.00690346 -0.788012 0.287987 0.537283 
-0.083867 0.151262 -0.000212623 -0.114475 0.942845 -0.161999 
-0.102821 0.145278 0.00483613 0.123382 -0.742088 0.507854 
0.0250033 0.0848974 -0.00214023 -0.377081 0.484092 0.728585 
-0.0212136 0.106667 -0.00311568 -0.627451 0.476743 0.597285 
-0.0868989 0.140909 0.0201337 -0.164917 -0.849984 -0.269555 
0.0698576 0.0827875 0.000916541 -0.44148 -0.119477 -0.877464 
-0.0159603 0.123138 -0.02283 -0.826341 0.301332 -0.456657 
0.0603559 0.0577575 -0.0243581 0.63638 -0.0409229 -0.751688 
-0.0925458 0.141418 -0.00357001 -0.0791768 -0.815752 0.404001 
-0.0526075 0.135737 -0.00294519 -0.522828 0.440901 0.701925 
0.0491135 0.117679 -0.00219249 0.147581 -0.0397988 0.978936 
0.0322873 0.10742 -0.00495984 -0.58621 0.144309 0.790296 
-0.0491857 0.153519 0.00423671 0.206862 0.0183184 0.941388 
0.0561413 0.0539927 0.0137218 -0.0758687 -0.891885 -0.415692 
-0.0578472 0.175717 0.0045093 0.341162 0.789629 0.323467 
-0.0813447 0.0634979 -0.00223819 -0.863482 -0.478226 0.132777 
0.0317565 0.0580978 -0.0251374 0.077285 -0.479 -0.861035 
-0.0651341 0.108392 0.00960857 -0.0994981 0.247888 0.956483 
-0.048375 0.116524 0.00441167 0.39734 0.0612474 0.907695 
-0.0335429 0.0544482 0.000240589 -0.176841 -0.90537 -0.350335 
-0.0760116 0.0922242 0.0126829 -0.390084 0.21384 0.889432 
0.0232386 0.085093 0.00842413 -0.595162 0.793894 0.0559265 
-0.0399802 0.0534128 0.00492409 -0.0486227 -0.960358 -0.217668 
0.0396284 0.0781182 0.0147824 0.102234 0.0163814 -0.39285 
0.0657442 0.056409 0.0165127 0.491703 -0.792292 0.358855 
-0.0106116 0.140188 -0.0215724 -0.446936 0.135425 -0.825892 
-0.0202606 0.116336 -0.020372 -0.77474 0.329486 -0.510534 
0.0447884 0.0938049 0.0155966 0.531992 -0.306685 -0.625319 
0.0533435 0.152997 -0.0192926 0.302048 0.798907 -0.0612024 
0.0116213 0.0598639 0.00883315 -0.118658 -0.946446 -0.0866755 
-0.0667163 0.0586204 0.0245795 -0.928661 -0.296524 -0.191769 
0.0460589 0.0556518 0.0053227 -0.00978275 -0.955267 -0.112299 
-0.0321718 0.145347 -0.00363999 0.56116 -0.36788 0.628003 
0.0808617 0.126188 -0.0107463 -0.212235 -0.156047 0.904908 
0.0628261 0.0531043 0.00670135 0.106591 -0.985705 0.00659068 
0.000104814 0.15289 -0.0188983 -0.460957 0.354678 0.7411 
0.0578151 0.0742008 -0.00108495 0.279239 0.734285 -0.613083 
0.00225478 0.0552625 0.0229373 -0.370332 -0.337923 -0.208147 
-0.0769938 0.174535 0.00159038 0.707546 0.663564 0.0262321 
-0.0490621 0.167774 -0.0342523 -0.570179 0.0580541 -0.774974 
-0.0371903 0.15378 -0.0373735 -0.3427 -0.281825 -0.836033 
-0.0438816 0.0953901 0.000627835 0.593652 0.771167 0.202508 
0.0406988 0.0662154 -0.0419198 0.299439 0.734965 -0.472899 
-0.0529579 0.143786 -0.00970003 -0.516569 -0.701248 0.286305 
-0.00354884 0.14225 -0.0252031 -0.67999 0.509498 -0.509461 
0.03245 0.055622 0.0203325 0.25609 -0.892916 -0.210679 
-0.0498731 0.0917499 0.0189679 0.17666 0.60716 0.76268 
0.0251115 0.084685 0.0138388 -0.681445 0.503417 0.512816 
-0.0482208 0.108441 -0.0217867 0.385619 -0.373359 -0.834499 
1.76902e-05 0.133565 -0.00237804 -0.115122 0.360671 0.918766 
0.0216331 0.0679314 0.0105446 -0.373323 -0.445737 0.764232 
0.0290688 0.0603573 0.0225991 -0.327965 0.138833 0.905291 
0.0535824 0.11614 -0.0319893 0.47104 -0.0244752 -0.877275 
-0.0632139 0.0540618 0.00266268 -0.274839 -0.930013 0.226635 
0.0351118 0.106459 -0.0331434 -0.399694 0.283548 -0.868644 
0.0426854 0.0627911 -0.0046048 -0.368492 0.331807 -0.621423 
-0.0467937 0.146578 0.00506132 0.516039 0.387075 0.624918 
-0.0363763 0.110845 -0.0150002 0.788837 -0.375063 -0.323339 
-0.014477 0.187246 -0.0239506 0.401059 0.0393624 0.891476 
0.0115405 0.143639 -0.0340831 -0.279954 0.408812 -0.861377 
-0.0765722 0.0615383 -0.0389542 0.558275 -0.0582221 -0.777762 
0.0699634 0.0597195 0.0176871 0.521029 -0.794825 0.300947 
-0.0722572 0.0773861 0.0151424 -0.258815 0.109628 0.954487 
0.045414 0.115536 -0.00160579 0.0273549 -0.0824178 0.986231 
-0.0851091 0.0948816 -0.0110112 -0.871783 0.275532 -0.384497 
-0.0384096 0.154635 -0.0373054 -0.320827 -0.541018 -0.710998 
0.0457904 0.092864 -0.00742109 0.647872 -0.391692 0.647689 
0.0482889 0.0569586 -0.0167704 0.211058 -0.798018 -0.501425 
-0.0201082 0.148762 -0.0226371 0.836624 0.118745 0.39241 
-0.0734568 0.174669 -0.0187765 -0.690988 0.403288 -0.326652 
0.0324395 0.150087 -0.033407 0.148089 0.450029 -0.873366 
-0.0846483 0.0747942 -0.0108736 -0.935074 -0.271144 -0.208372 
-0.0614148 0.177568 -0.0216984 -0.247797 0.920507 -0.277314 
-0.0306538 0.0972343 -0.0188719 -0.760434 0.531451 -0.360504 
0.0240868 0.138141 -0.0350476 0.0633612 -0.197762 -0.975017 
0.0500639 0.0542993 -0.00326335 -0.355869 -0.868252 0.320198 
-0.0236653 0.104674 -0.00542348 -0.843696 0.358729 0.378601 
0.0736531 0.122427 -0.0190198 0.335001 -0.284691 -0.892294 
-0.0282173 0.129538 -0.0226892 0.183166 -0.25536 -0.915747 
-0.0771713 0.0998843 -0.0193178 -0.489715 0.19357 -0.849023 
-0.0251474 0.102596 -0.0231091 -0.798569 0.345464 -0.475416 
0.0687611 0.0834251 0.00148064 -0.519707 -0.0988631 -0.832085 
-0.0640975 0.0680064 0.0341123 -0.846787 0.317476 0.313039 
0.0443833 0.104607 0.0140871 0.845124 0.0915651 -0.493799 
0.0349172 0.156723 -0.0247703 0.12183 0.716058 -0.657529 
-0.0224127 0.107753 -0.0238389 -0.740902 0.384722 -0.539014 
-0.029598 0.161268 -0.0405225 -0.563023 0.358738 -0.523908 
0.0645622 0.121092 -0.0127413 -0.428248 0.30706 0.641641 
0.0358629 0.105376 -0.00299882 -0.254608 0.0708421 0.956037 
-0.0556577 0.166816 0.007647 0.136513 0.66608 0.694564 
0.070566 0.12567 -0.00861305 0.0121625 0.55013 0.822867 
0.0228483 0.148047 -0.0343385 -0.192293 0.332536 -0.916597 
0.0403561 0.150631 -0.00765021 0.307418 0.633592 0.704612 
0.0505277 0.0584722 -0.0267976 -0.381982 -0.842904 -0.360212 
0.0336586 0.0891153 -0.0344618 0.150452 -0.0718917 -0.979537 
0.0428376 0.0800122 0.0270053 0.607964 -0.46041 0.624532 
0.00270382 0.13328 -0.0341234 -0.294507 0.252118 -0.91606 
-0.0378711 0.144694 -0.032817 -0.0695938 -0.928191 -0.181397 
-0.0757802 0.163891 0.00774713 0.0107063 -0.845683 -0.466989 
-0.0253733 0.0722939 0.0190932 0.518168 0.483079 0.681162 
-0.0353578 0.194077 -0.0193599 0.493751 0.0649342 0.815809 
-0.0150604 0.0996319 0.00326722 -0.213969 0.369932 0.896911 
-0.0455836 0.104813 -0.00413741 0.951818 -0.0969508 0.27602 
0.030575 0.119079 -0.0181905 -0.975599 0.0691537 0.053223 
0.0403348 0.0636339 -0.0277419 -0.0619133 -0.767818 -0.597573 
0.0437181 0.0566283 -0.00094728 0.126969 -0.817723 0.437272 
-0.0491134 0.0943808 0.0136102 0.45652 0.856528 0.194993 
-0.0867347 0.14245 0.0108674 -0.341562 -0.894386 0.235117 
-0.0906007 0.162815 -0.011194 -0.411638 -0.761338 -0.334952 
0.0503586 0.0759315 -0.0182297 0.650314 0.692322 0.288701 
0.0611435 0.082764 0.00248713 0.178616 0.108707 -0.913897 
-0.0788871 0.069024 -0.0275697 -0.0301421 0.881577 0.296715 
-0.0490976 0.079189 0.0247628 -0.0419633 0.971715 0.110375 
-0.0441002 0.143665 -0.0321895 -0.237885 -0.123535 -0.88028 
-0.031348 0.0601396 0.0245722 -0.421768 -0.420546 0.782454 
0.0563537 0.0799015 0.00116442 0.223208 0.389605 -0.770925 
-0.0547149 0.173643 0.0048621 0.298218 -0.0567944 0.854922 
-0.0596432 0.0587152 -0.0214918 -0.227059 -0.577614 -0.757752 
0.0485252 0.0589536 -0.0246712 -0.497179 -0.834604 -0.17695 
-0.0326507 0.0762275 -0.0298233 -0.230644 0.0154686 -0.956968 
-0.0563884 0.126347 0.00242345 -0.176044 0.57752 0.789746 
-0.0382618 0.187144 -0.0159877 0.370847 0.359953 0.822127 
-0.0244245 0.146826 -0.0102035 0.806881 -0.483449 -0.001215 
-0.0867634 0.0928903 -0.00676807 -0.941051 0.31335 -0.100635 
0.0240444 0.0608196 0.00760183 0.0967519 -0.00965949 -0.825023 
0.0764476 0.141839 -0.00719281 -0.417624 -0.0740889 0.871507 
0.0532367 0.0599326 0.0230825 -0.108826 -0.460523 0.875983 
-0.0622123 0.148352 -0.0228051 -0.462157 -0.0446097 -0.832533 
0.0262841 0.0853815 0.00358003 -0.078367 0.915215 -0.35264 
-0.0388585 0.176733 -0.00148693 0.568273 -0.254092 0.448203 
-0.0773312 0.114939 -0.00551765 -0.675378 0.725455 -0.0637431 
-0.0754772 0.163178 0.00980454 0.176132 -0.937162 -0.157378 
0.0394243 0.110961 0.0164258 -0.181743 0.450839 0.790466 
-0.0791482 0.0837759 0.0119851 -0.459484 -0.0251578 0.87751 
0.0031397 0.110621 -0.0332204 0.447141 -0.296726 -0.835863 
0.031573 0.0847403 -0.0344189 0.0843393 -0.0893519 -0.989934 
0.0514512 0.141018 -0.00614165 0.416044 0.407855 0.807691 
-0.00560172 0.135178 -0.0290004 -0.577214 0.451742 -0.669155 
-0.0588103 0.0609275 0.0373766 -0.122608 -0.245107 0.961384 
-0.072693 0.0583223 -0.0130388 -0.45805 -0.849071 -0.247505 
-0.0561165 0.180807 -0.0102662 0.112107 0.986546 -0.000125836 
0.0564667 0.0733317 -0.00315056 0.426796 0.777092 -0.442069 
0.082581 0.0974677 -0.00260903 0.882862 -0.0654126 -0.450898 
0.0306289 0.0619463 -0.0279533 0.116182 -0.410359 -0.886652 
0.0453793 0.0831647 -0.0172444 0.971387 -0.0592887 -0.138832 
-0.0669363 0.151172 0.00319558 -0.0508927 0.785948 0.503477 
0.0381895 0.0658306 -0.0428573 -0.209164 0.842052 -0.323358 
0.013449 0.0586207 0.0128484 0.0499525 -0.95028 -0.213545 
0.0162383 0.0606772 -0.0102542 -0.85159 -0.454416 0.238065 
-0.0182314 0.15209 -0.00608048 0.27483 -0.00820194 0.942635 
-0.0721729 0.159123 -0.0138947 0.210939 -0.65811 0.678779 
0.0263643 0.132451 -0.00547286 -0.0163304 -0.620496 0.769375 
-0.0969497 0.14603 0.0114505 -0.411473 -0.876275 0.1096 
0.0828879 0.147682 -0.0109171 0.773953 0.374378 -0.280775 
0.0317228 0.0752532 -0.038204 0.619379 0.653972 -0.383344 
-0.0752519 0.0913585 0.0132588 -0.375624 0.282132 0.879255 
0.0390039 0.075652 -0.0335376 0.0520744 -0.37359 -0.82256 
0.0515493 0.105945 -0.0307339 0.598507 -0.403643 -0.677872 
-0.0231689 0.147873 -0.0254538 0.205536 -0.129802 -0.947143 
-0.0653605 0.123693 -0.018392 -0.64563 0.550016 -0.515363 
0.0662242 0.118495 -0.00682471 -0.795316 0.218281 0.510107 
0.0506386 0.0771799 -0.0233616 0.839551 0.525651 0.0387498 
0.000655044 0.124861 -0.000794511 -0.0833914 0.114659 0.98527 
0.00210044 0.0873865 -0.0211373 0.845559 -0.424644 -0.29471 
-0.0278534 0.168445 -0.0372789 0.775641 0.377165 0.307787 
-0.0752134 0.173039 0.00175253 0.412152 0.789611 0.314433 
-0.0172298 0.0578642 0.000609651 0.72236 -0.511868 0.431096 
0.0370981 0.160889 -0.0221516 0.0407019 0.737148 -0.583616 
0.026139 0.130442 -0.00736271 0.0038713 -0.697039 0.707008 
-0.048914 0.140644 -0.00339802 -0.478914 0.287683 0.812626 
0.0562952 0.140334 -0.00998578 0.661586 0.469479 0.573846 
0.0485761 0.099657 -0.0303383 0.628151 -0.316641 -0.702685 
-0.0731519 0.0684525 -0.0318128 -0.245961 0.914968 -0.181542 
-0.0425032 0.139995 -0.0291137 -0.496714 -0.401571 -0.653644 
-0.0467097 0.0536166 0.00709959 -0.00933103 -0.967708 0.187594 
-0.0862581 0.0901004 0.001158 -0.873889 -0.218075 0.388943 
-0.0497658 0.143988 -0.00451 -0.349128 -0.631086 0.590848 
-0.0411107 0.170173 -0.0367052 0.287772 -0.5418 -0.618169 
-0.06571 0.0735194 -0.0308121 -0.596792 -0.506924 -0.573459 
-0.0834541 0.165535 0.0101197 -0.344286 -0.465143 -0.755873 
-0.0551256 0.126266 -0.0242414 -0.365984 0.19984 -0.90616 
-0.0826135 0.0834499 0.00992911 -0.655024 -0.10646 0.730793 
-0.0691974 0.147967 0.0111033 0.241349 0.384355 0.838798 
-0.0621695 0.145436 0.000217081 0.340522 -0.876757 0.0795238 
0.0513585 0.0707439 0.0230388 -0.401474 0.29894 0.843315 
0.0765343 0.146556 -0.0103143 -0.701451 0.457133 0.0687933 
0.0477346 0.0890814 -0.0145312 0.803966 -0.398551 -0.385026 
0.0161285 0.13626 -0.0352582 0.12708 0.0338172 -0.988031 
-0.000779909 0.0815266 -0.00569073 0.896506 -0.32166 0.281076 
0.068311 0.0769435 0.0242917 0.171823 0.0525221 0.971317 
0.0359128 0.0784127 0.00488322 0.0241222 0.753599 0.503487 
-0.050646 0.18009 -0.0190081 -0.0910834 0.907817 -0.388789 
-0.0570421 0.101978 0.0109953 0.291821 0.421417 0.85314 
-0.0637875 0.0724877 0.023749 -0.631871 0.747855 -0.0257332 
-0.0150364 0.119075 -0.0274054 -0.773202 0.279826 -0.554006 
-0.0526451 0.0537383 -0.0181162 -0.103893 -0.944289 -0.296416 
-0.0706326 0.0917233 -0.028893 -0.509753 0.521682 -0.676341 
0.0894181 0.133229 -0.0133356 0.508554 -0.0233169 -0.810944 
0.066711 0.13137 -0.0150618 -0.131263 0.157017 0.813486 
0.0760056 0.121078 -0.00831288 0.790644 0.415205 0.403573 
-0.064063 0.097004 -0.0231108 0.190615 0.592935 -0.728178 
-0.0276347 0.14626 -0.00242645 0.232153 -0.355636 0.802324 
-0.0432634 0.149343 0.00330573 0.367554 0.0223148 0.919337 
0.0673871 0.0703527 -0.00902707 0.590869 0.357961 -0.641483 
-0.0378146 0.195149 -0.0199522 -0.446361 0.753523 0.384279 
-0.0208223 0.144839 -0.0226093 0.878704 -0.180105 0.15925 
0.0537773 0.124751 -0.032479 0.554483 -0.121161 -0.806914 
-0.045746 0.115046 0.00229182 0.731539 -0.208267 0.641547 
0.066933 0.0571472 -0.0170547 0.429436 0.481954 -0.701182 
0.0743688 0.133507 -0.00911995 -0.194934 -0.208782 0.943904 
-0.0697567 0.100977 -0.0221762 -0.225335 0.134734 -0.962027 
-0.0894548 0.170973 0.00860361 -0.479096 -0.725237 -0.343756 
-0.043143 0.073897 -0.0328727 0.561954 0.633976 -0.514002 
-0.0315122 0.0589393 0.0236702 -0.484756 -0.573292 0.638095 
0.038153 0.0699243 0.0196718 0.708853 -0.429748 -0.305504 
-0.00533879 0.0700749 -0.00628986 0.818924 -0.547223 0.128413 
-0.087067 0.0826604 -0.007899 -0.869614 -0.323948 -0.346867 
-0.0908988 0.143204 0.00859497 -0.181139 -0.958629 0.141361 
-0.0543706 0.175635 -0.0263719 -0.248342 0.834287 -0.435478 
-0.0327871 0.182627 -0.02527 -0.266384 0.0702713 -0.941836 
-0.01133 0.102372 0.00284001 0.00645715 0.101667 0.987283 
-0.0392473 0.180764 -0.000868148 -0.502534 0.765084 0.253238 
-0.0459951 0.109989 0.000233998 0.797151 -0.312789 0.507989 
-0.049626 0.0545168 0.0312672 0.0122686 -0.728187 0.564364 
0.0356104 0.11265 -0.00359351 -0.486259 0.101863 0.854883 
0.0429284 0.126544 -0.00185222 -0.0352592 -0.032131 0.986671 
-0.0398186 0.0860783 -0.0251919 -0.31283 0.707348 -0.625556 
-0.0618332 0.178925 -0.00341385 0.0500237 0.839503 0.495105 
-0.0139918 0.132647 -0.015503 -0.530707 0.355617 0.728742 
-0.0660336 0.127053 -0.00787454 -0.838033 0.495425 0.144933 
-0.000916178 0.127941 -0.00134985 -0.22203 0.206881 0.946817 
0.0106615 0.10877 -0.0132695 0.901554 -0.304063 0.261043 
-0.0690691 0.110143 -0.0209765 -0.220692 0.209576 -0.948329 
-0.00826455 0.0648249 0.0167952 0.95158 -0.050273 -0.0579575 
-0.0687685 0.168772 -0.0192638 -0.64916 -0.26822 -0.631306 
0.033813 0.135019 -0.00304229 -0.27019 -0.20539 0.93029 
-0.0607731 0.0933962 0.0159379 -0.506266 0.508771 0.679369 
0.0031891 0.129003 -0.0346285 -0.216607 -0.00253062 -0.97195 
-0.0244977 0.164193 -0.0212258 0.617189 0.227551 0.687123 
-0.0559581 0.10908 -0.0231951 -0.0467287 -0.272767 -0.956371 
0.0802551 0.0990167 0.0114898 0.63301 0.433176 0.630026 
0.0315008 0.0594495 -0.0477761 -0.662726 0.532657 -0.2592 
-0.0624392 0.122128 -0.02161 -0.50141 0.195202 -0.838108 
0.0317699 0.0983754 -0.0342853 -0.243726 0.243015 -0.934752 
0.0783749 0.0912818 0.0170519 0.468165 0.377241 0.792402 
-0.0807566 0.178338 0.0030389 0.714419 0.607319 0.310289 
0.0630112 0.137894 -0.015762 0.388998 0.111687 0.851639 
-0.0618778 0.170943 -0.0261568 -0.424252 0.45215 -0.758846 
-0.0558622 0.0879617 -0.0308038 0.333652 0.786247 -0.50298 
-0.0779692 0.0628932 -0.013614 -0.727514 -0.570843 -0.336067 
0.000340449 0.090973 -0.00220551 0.775732 -0.178459 0.599585 
0.0111652 0.149945 -0.0298631 -0.290934 0.646817 -0.699716 
-0.021809 0.100388 0.000577304 -0.62447 0.422293 0.647118 
0.0035493 0.118865 -0.000843372 0.261102 -0.0407729 0.959221 
0.0527143 0.101734 -0.00906713 0.581417 -0.385996 0.682795 
0.0387438 0.10655 0.0186071 -0.323596 0.82064 0.281863 
-0.0756679 0.165197 -0.00152775 -0.0427606 -0.949846 -0.0572723 
0.0682276 0.0966709 0.0137031 -0.629512 0.569803 0.505657 
0.0208684 0.0720468 -0.0357885 -0.0245881 -0.689081 0.544193 
-0.0489873 0.127382 -0.0264026 -0.343076 0.00404862 -0.934491 
0.0422046 0.150976 -0.0289841 0.404661 0.598318 -0.685806 
-0.0476851 0.100852 -0.0161137 0.685627 -0.38064 -0.606327 
0.036729 0.10899 -0.0026592 -0.347724 0.027554 0.924728 
0.0426352 0.0804284 0.0154616 0.722427 -0.148883 -0.182699 
-0.0839769 0.100574 -0.0108917 -0.823693 0.378476 -0.396269 
-0.0371493 0.0913975 -0.0174083 -0.45472 0.819286 -0.326142 
0.0951823 0.135621 -0.00827848 0.196902 -0.721675 0.475922 
0.0383228 0.115188 -0.0324767 -0.511296 0.117878 -0.845982 
-0.00405526 0.124811 -0.000999039 -0.178897 0.129447 0.971561 
0.0217208 0.0682302 -0.0305544 -0.424779 -0.360953 -0.825285 
0.0463311 0.0919647 -0.00844893 0.538006 -0.293766 0.741653 
-0.0730394 0.0779993 -0.0228595 -0.6692 -0.459369 -0.506756 
0.0350609 0.155765 -0.0260836 0.0533563 0.835764 -0.532655 
-0.0123995 0.12662 -0.0260019 -0.807656 0.3698 -0.436849 
-0.0220498 0.16164 -0.0124532 0.207053 -0.0988637 -0.953603 
-0.0309732 0.146684 -0.00240386 -0.161696 -0.718577 0.572595 
0.02765 0.0996416 -0.0318652 -0.509031 0.364662 -0.774944 
-0.039051 0.171784 0.000712171 0.470245 -0.22024 0.804574 
0.0551586 0.114142 -0.0304675 0.6559 -0.181596 -0.728232 
0.0160748 0.0803689 -0.0284612 -0.839603 0.183558 -0.499715 
-0.0542756 0.144555 0.00929806 0.308109 0.230006 0.870083 
0.034446 0.108163 0.00871961 -0.774448 -0.25898 -0.438187 
0.00623514 0.0937086 -0.0130679 0.92613 -0.271861 0.0392874 
0.0318723 0.0611271 -0.0461089 -0.738135 0.269761 -0.40706 
0.0664565 0.099295 0.00644245 -0.92824 0.273916 0.219246 
0.0317697 0.0757507 0.0255685 -0.753234 0.0855081 0.638318 
-0.0340213 0.183884 -0.00485596 -0.381311 0.802898 -0.287646 
-0.0798441 0.0947776 0.00989835 -0.661238 0.36761 0.644156 
0.0461241 0.0771532 -0.0316845 0.572944 -0.0263873 -0.812596 
-0.0240656 0.151701 -0.0256638 0.303098 -0.0274085 -0.927421 
0.0815077 0.0795745 0.00576551 0.889981 -0.317334 -0.316238 
-0.0630432 0.0738313 0.0370401 -0.662246 0.696091 -0.0926356 
0.00540502 0.149648 -0.0116437 -0.557694 0.729382 0.379607 
-0.0369133 0.0638506 -0.0386955 -0.0339775 0.708694 -0.681361 
-0.00609906 0.0740954 -0.0214066 0.696717 -0.573324 -0.417997 
0.000445148 0.0839261 -0.0205515 0.854163 -0.405504 -0.299875 
0.00265545 0.0985403 -0.00321058 0.783117 -0.212715 0.570896 
-0.0788584 0.10294 0.00682773 -0.696547 0.402269 0.577027 
0.0503428 0.0554575 0.00471316 -0.0993929 -0.990829 0.0274254 
-0.0951966 0.149237 -0.00389366 -0.326489 0.257766 -0.843691 
-0.0402942 0.135094 -0.0289011 -0.0679088 -0.14727 -0.977682 
0.0141479 0.0732413 -0.00894097 -0.858635 -0.00763225 0.496342 
0.0124209 0.112803 -0.024915 0.776053 -0.527145 -0.320965 
-0.0791638 0.150462 -0.00403923 -0.326668 0.571952 -0.622857 
-0.0724113 0.145361 -0.0174722 -0.579657 0.300338 -0.718279 
-0.0340704 0.182104 -0.00662633 -0.0977918 0.30095 -0.886435 
0.0185843 0.0638201 0.0165531 0.134494 0.88725 0.362278 
-0.0461551 0.0931755 0.00969338 0.542865 0.746026 0.338403 
-0.0302576 0.0570714 -0.0252 0.247117 -0.648575 -0.655466 
-0.0423733 0.15532 0.00301537 0.276533 -0.00778175 0.929533 
0.0426542 0.141498 -0.00313332 0.295553 0.201296 0.928484 
-0.0839926 0.101929 -0.0042238 -0.841442 0.527124 0.00350773 
-0.0538593 0.163378 0.00692166 0.379972 -0.287694 0.818359 
0.0570584 0.104313 -0.0198865 0.833722 -0.480785 -0.244504 
-0.0244293 0.0602132 -0.0307692 0.675497 -0.569895 0.433817 
0.0377279 0.112248 0.0143692 -0.719071 0.278821 0.577816 
-0.0234133 0.0947687 0.00367142 -0.244631 0.498436 0.822918 
-0.0420136 0.0767416 0.0275533 0.633959 0.638646 0.366674 
-0.0553148 0.137987 -0.0163699 -0.873927 0.414619 -0.146181 
0.039908 0.0581503 -0.022542 0.325682 -0.550671 -0.760227 
-0.0752907 0.0599559 -0.0351599 0.460666 -0.858021 -0.133152 
0.0821517 0.09386 -0.00154909 0.834067 -0.206703 -0.491375 
0.0365397 0.0558953 -0.0223548 0.329892 -0.652232 -0.672198 
0.0348774 0.103402 -0.00309338 -0.380422 0.0848234 0.910544 
0.0294472 0.122898 -0.0161278 -0.60165 -0.705842 0.294537 
-0.0565971 0.169866 0.00553063 -0.0792456 0.688866 0.649165 
-0.031478 0.0561747 0.0184861 -0.714708 -0.667553 0.138601 
-0.0844127 0.0712432 0.00158854 -0.953634 -0.135161 0.247626 
-0.0370344 0.0975127 -0.0122872 -0.396061 0.650393 -0.461846 
-0.0258695 0.150496 -0.0387014 0.5942 -0.217592 0.594404 
0.0156009 0.0677225 -0.0248012 -0.796221 -0.359905 -0.481693 
-0.0355885 0.11369 -0.0135849 0.883435 -0.141904 0.328356 
0.0648909 0.0556503 0.0159328 0.477715 -0.787057 0.384637 
-0.0475434 0.117859 -0.025222 -0.0443404 -0.315268 -0.943734 
0.0145397 0.0892818 -0.0192059 -0.917133 0.307651 -0.183438 
0.0370414 0.0605239 -0.0256191 0.231302 -0.606928 -0.75292 
0.0351824 0.114575 0.00696608 -0.622051 0.0305807 -0.677656 
-0.0268993 0.153585 -0.0386213 0.189979 0.777827 -0.385028 
0.021189 0.126392 -0.0292357 0.384022 -0.669442 -0.628576 
-0.0705093 0.149738 0.00519 -0.118421 0.806679 0.409696 
-0.0752999 0.0709256 -0.0197717 -0.428647 -0.20965 -0.845268 
0.0175032 0.139758 -0.0352707 -0.0730655 -0.105215 -0.985977 
-0.00334102 0.0743809 -0.0163595 0.768591 -0.600498 -0.176376 
-0.0568109 0.157268 -0.0128735 -0.781105 0.552399 0.17047 
-0.0544607 0.053612 0.0300953 0.0774694 -0.967974 0.228691 
0.045614 0.0923911 -0.0289184 0.736988 -0.30194 -0.596732 
0.0698318 0.0689505 -0.0064814 0.717801 0.262466 -0.592716 
0.0411078 0.0754463 0.0248711 0.660007 -0.53225 0.486764 
0.0191834 0.0766349 0.00999099 -0.798058 0.291924 0.520472 
-0.0766856 0.0844105 -0.021701 -0.521628 -0.216214 -0.799871 
-0.0266146 0.13164 -0.0168998 0.745594 -0.171154 0.582396 
-0.0369013 0.0529034 -0.0364564 -0.0175202 -0.985182 0.019744 
0.037938 0.0550518 -0.00551282 -0.092443 -0.452251 -0.522544 
-0.08485 0.059878 -0.0249286 -0.498186 -0.462202 0.455524 
0.0712437 0.0587616 -0.0118064 0.770375 0.314426 -0.528044 
0.0583203 0.133188 -0.00869764 0.79732 0.203893 0.560633 
0.0473743 0.115863 -0.00181709 0.173252 0.0249082 0.976663 
0.0138794 0.0684028 -0.0217693 -0.885785 -0.287934 -0.340805 
0.0445471 0.101717 -0.00366121 0.347214 -0.165084 0.917152 
0.0471475 0.0771531 -0.0309094 0.672221 -0.020055 -0.73269 
-0.0403182 0.192999 -0.0201668 -0.731496 0.643341 0.0444921 
0.013802 0.0757589 -0.0240191 -0.918414 0.0199059 -0.38076 
-0.0373953 0.120709 -0.0046012 0.708926 -0.411324 0.555876 
-0.0633672 0.0607971 0.0355777 -0.540963 -0.342284 0.763148 
-0.036296 0.120428 -0.0218199 0.595275 -0.496111 -0.625239 
0.0280022 0.110922 -0.0217725 -0.866298 0.390374 -0.2853 
0.0663416 0.0557132 0.013871 0.590401 -0.751054 0.29064 
0.0473926 0.0756003 -0.00224264 0.093257 -0.445023 0.552603 
-0.0814039 0.141747 0.0157364 -0.0894744 -0.80239 -0.418185 
-0.0167056 0.188714 -0.028681 -0.370254 0.722739 -0.543009 
0.0378673 0.0834271 0.0109625 0.800198 0.127326 -0.531622 
-0.0113906 0.127986 -0.00610524 -0.692232 0.391413 0.593833 
0.0379174 0.114534 0.00633781 0.385618 -0.0596998 -0.814959 
0.0260538 0.0713433 -0.0409786 -0.449706 -0.19721 -0.82393 
-0.0606307 0.160161 0.00661475 -0.0149702 -0.940973 0.103753 
0.0263908 0.143338 -0.0355488 0.0802735 0.101423 -0.984986 
0.0802171 0.0865956 0.0175526 0.722938 0.279929 0.626319 
-0.0804931 0.10895 -0.00901091 -0.849979 0.473939 -0.151404 
0.0522933 0.0737888 -0.00816554 0.624554 0.680412 -0.328487 
-0.0643557 0.123906 -0.0192922 -0.619205 0.473061 -0.617097 
0.0249007 0.0527659 -0.0107459 -0.0153819 -0.991903 0.00946773 
-0.0520353 0.167852 -0.0313855 -0.429014 0.0125022 -0.849113 
0.0331277 0.0627654 -0.0278612 0.0839795 -0.567731 -0.805787 
-0.0255945 0.0543389 0.00420028 0.304801 -0.736745 0.565306 
-0.047384 0.123479 -0.0263164 0.0405243 -0.262994 -0.955521 
-0.0738507 0.170323 -0.0092595 -0.430934 0.436137 -0.714994 
-0.0241165 0.183616 -0.0279037 -0.259753 -0.070494 -0.936407 
-0.0150701 0.172837 -0.0070843 0.314368 0.0225071 0.889038 
-0.0810704 0.161219 0.0123463 -0.510649 -0.320911 0.484748 
0.0535487 0.150629 -0.0165894 0.201127 0.311094 0.880561 
0.0362856 0.13326 -0.00271557 -0.271076 -0.203127 0.930133 
-0.0439008 0.0604833 -0.0392332 -0.0847752 0.182667 -0.973195 
-0.0517956 0.0809162 0.0207961 -0.0239211 0.288443 0.901312 
-0.0482645 0.0535308 -0.0146807 0.094384 -0.948667 0.266692 
-0.0733149 0.116627 0.00160766 -0.724033 0.482836 0.476605 
0.0775074 0.113517 -0.0123608 0.811816 -0.107533 -0.556702 
-0.0698122 0.162347 0.0115395 -0.1449 -0.858542 0.367651 
0.0150572 0.0887056 -0.0134471 -0.72036 0.400901 0.515024 
-0.0234957 0.147669 -0.00912358 0.29992 -0.609798 -0.496757 
0.0386666 0.0583513 0.0160952 -0.442375 -0.440583 0.743677 
0.0277937 0.159148 -0.0183245 -0.0260998 0.423569 0.845074 
0.0278975 0.153878 -0.00852388 0.116359 0.794691 0.593212 
-0.0409814 0.0537262 -0.0162636 0.12762 -0.88722 0.411895 
0.0530942 0.105745 -0.00681347 0.567216 -0.423904 0.700531 
-0.0847484 0.0858074 0.00629264 -0.834669 0.272314 0.472476 
0.0148991 0.0713901 -0.00754528 -0.88936 0.0156152 0.446434 
-0.0352741 0.0613096 0.0226183 -0.55749 -0.622186 0.50766 
0.019878 0.152387 -0.00754346 -0.0758774 0.705362 0.701563 
-0.0270169 0.10674 -0.0124561 -0.507117 0.121538 0.794688 
0.0312226 0.0627059 -0.0454258 -0.377902 -0.229509 -0.819788 
0.0642026 0.121727 -0.0191388 0.70039 -0.14696 -0.630694 
0.0282415 0.067334 0.0151344 -0.590612 0.552401 -0.391648 
0.0523177 0.0758791 -0.00338041 0.549771 0.644308 -0.378853 
0.0662651 0.096596 0.00965168 -0.896148 0.34417 0.237123 
0.0345111 0.0651295 -0.0446381 0.534859 0.628657 -0.323395 
0.00945349 0.111479 -0.00804462 0.798124 -0.275303 0.522871 
-0.053132 0.0785125 0.0249384 -0.321343 0.812889 0.466948 
0.07044 0.130398 -0.019884 -0.487389 0.0945988 -0.818412 
0.0662999 0.110737 -0.00309054 -0.955536 0.116824 0.196586 
-0.0531558 0.0629638 0.0370778 0.324853 0.00141645 0.942392 
0.0322477 0.112017 -0.00616759 -0.726229 0.214193 0.643328 
-0.0783127 0.158129 -0.0169962 -0.409727 -0.674948 -0.573778 
0.0237041 0.141228 -0.00290415 0.117599 0.118786 0.976179 
0.0457067 0.0537115 -0.0087063 -0.320434 -0.851308 0.39084 
-0.00415209 0.191515 -0.0317265 0.440825 -0.532924 -0.604553 
-0.0520446 0.057627 0.0172518 0.420573 -0.56601 -0.683294 
-0.0513228 0.0956443 0.0133767 0.395227 0.871618 0.253581 
-0.0272941 0.173526 -0.0430011 -0.288318 -0.109591 -0.900827 
0.0711029 0.0927291 -0.00296769 -0.513668 -0.411417 -0.738598 
-0.027905 0.152549 -0.0404948 0.00800599 0.718751 -0.59127 
0.0568621 0.0689356 0.0252203 -0.147227 0.0488604 0.980847 
0.0341185 0.0887289 -0.00271368 0.114306 0.212703 0.953556 
-0.0751417 0.114724 0.00178899 -0.554246 0.691569 0.449777 
-0.0856859 0.088382 0.00281487 -0.896926 0.215609 0.356258 
0.0228688 0.13857 -0.0351845 0.0335834 -0.172915 -0.979095 
0.0234168 0.0879511 -0.00461163 -0.438009 0.326889 0.825254 
-0.0561765 0.0756382 0.0301218 -0.530158 0.818372 -0.100686 
-0.029902 0.148697 -0.0346384 0.0546966 -0.808841 0.0956365 
0.0563286 0.129261 -0.00548175 0.675028 0.086789 0.726977 
-0.0397137 0.125947 -0.000265097 0.465745 -0.0468546 0.872609 
-0.0683981 0.0801902 -0.0320742 -0.512074 -0.31849 -0.789109 
0.0744113 0.113614 0.0011412 0.298446 0.699846 0.627444 
0.000556927 0.146944 -0.0130912 -0.636658 0.664112 0.375062 
-0.0356723 0.062253 0.0233512 -0.475661 -0.642802 0.569279 
0.068717 0.103928 0.00701384 -0.718789 0.356079 0.57694 
-0.0580738 0.0933974 -0.022725 0.352594 0.408205 -0.817488 
0.0483083 0.13594 -0.00326665 0.338414 0.178616 0.917974 
0.0529679 0.0552093 -0.0145601 -0.414081 -0.889445 0.00227996 
-0.085882 0.0590041 -0.0288448 -0.0171889 -0.919028 -0.157153 
-0.0398565 0.114196 -0.0077545 0.770442 -0.513718 0.350984 
-0.0494472 0.179739 -0.0199292 -0.0468304 0.886288 -0.439638 
-0.0366877 0.0802821 0.0209228 0.234385 0.314366 0.908928 
0.0321032 0.0788606 0.0249554 -0.818785 0.259087 0.488307 
-0.0667328 0.0666543 -0.0341918 0.292994 0.110757 -0.914446 
0.0242644 0.0887055 -0.0336436 -0.405325 0.23488 -0.87906 
-0.0847709 0.14046 0.00181587 0.000418401 -0.98161 0.036938 
-0.0507258 0.0598997 0.0146926 0.332479 -0.735152 0.43816 
-0.0305427 0.185989 -0.0214412 -0.118045 0.961882 -0.00380639 
-0.0846398 0.0738617 0.00250446 -0.832765 -0.391859 0.331019 
-0.0632725 0.126183 -0.00068727 -0.594696 0.567993 0.538093 
-0.00056066 0.0804338 -0.00770261 0.943183 -0.219296 0.20097 
0.0402179 0.0975837 -0.0338626 0.257013 -0.159158 -0.946118 
-0.0499776 0.180739 -0.010565 -0.0131827 0.982486 0.169312 
0.0575855 0.132998 -0.00763189 0.761436 0.168651 0.615847 
-0.0275735 0.0774109 0.0131795 0.736129 0.634861 0.103104 
-0.0372233 0.0553245 -0.0140229 -0.0435385 -0.945894 0.302845 
-0.0110946 0.136859 -0.0217492 -0.585346 0.131133 -0.760688 
-0.0515025 0.143665 0.00813828 0.328782 -0.321522 0.790201 
0.0203896 0.155721 -0.0261184 -0.183651 0.863706 -0.430666 
-0.0437226 0.120423 0.00144177 0.57582 -0.115361 0.806121 
-0.0482186 0.102461 0.00293692 0.899074 0.114455 0.412782 
-0.0109753 0.088459 0.00551031 0.305053 0.109242 0.917241 
-0.0879019 0.0584001 -0.0358568 -0.781572 -0.0171845 0.188882 
-0.0464223 0.0552704 -0.0227031 -0.0170876 -0.81288 -0.558625 
0.0710683 0.123578 -0.00715101 0.0941106 0.537747 0.817287 
0.049486 0.0614271 -0.03098 0.0754864 -0.69725 -0.681786 
0.0136381 0.0659207 -0.0133027 -0.924856 -0.288677 0.215537 
-0.0422062 0.0980857 -0.012007 0.519211 0.236173 -0.759592 
0.000940574 0.148038 -0.0146862 -0.585884 0.748874 0.298916 
0.0546347 0.107673 -0.0288414 0.743831 -0.320921 -0.578458 
-0.0695841 0.161463 -0.0224196 -0.418132 0.597833 -0.580853 
-0.0882946 0.147495 -0.00754225 -0.395169 0.135741 -0.865195 
-0.0728851 0.175868 -0.0141501 -0.769943 0.529362 0.115904 
0.0356429 0.10516 0.014157 -0.839819 0.197203 0.38372 
-0.0342839 0.17024 -0.0305189 0.738448 0.484441 0.393117 
0.021584 0.071713 -0.0318172 -0.425096 -0.275774 -0.812223 
-0.0121549 0.0672573 0.00662518 0.664948 -0.275959 -0.645317 
0.0263874 0.0590242 0.00646963 -0.770179 -0.350863 0.389941 
0.0481905 0.0541604 0.0177864 -0.200838 -0.659219 0.692202 
-0.0996224 0.151902 0.00598238 -0.86932 0.153644 0.0554964 
-0.0839572 0.101796 -0.00246577 -0.838898 0.523923 0.0950822 
-0.0132291 0.0621166 0.000267568 0.747279 -0.448968 0.474358 
-0.0304667 0.0544602 -0.0123696 -0.419068 -0.886182 0.14472 
0.0792701 0.0870794 -0.00187511 0.36896 -0.143428 -0.858832 
0.0280447 0.0674608 -0.0366632 -0.504699 -0.814057 0.208004 
0.0124246 0.112208 -0.0238043 0.823625 -0.486468 -0.247742 
-0.0247501 0.0582883 -0.035817 0.8469 -0.501078 -0.121066 
0.0333672 0.159789 -0.0187752 -0.257156 0.50787 0.752248 
-0.0346757 0.18195 -0.0248219 -0.204384 0.053759 -0.957515 
-0.0320745 0.177677 -0.0173243 0.50187 -0.447094 0.691165 
-0.0568717 0.160602 0.00161287 -0.199926 -0.916984 -0.253349 
0.0407883 0.0790809 -0.0348166 0.226231 -0.117874 -0.958818 
-0.0208208 0.183 -0.0283829 -0.0962239 -0.422127 -0.864491 
-0.023557 0.15014 -0.0130689 0.967171 0.0380358 -0.0473098 
0.0510214 0.147091 -0.0106756 0.629402 0.641601 0.427998 
0.0730741 0.0899888 0.0196982 0.00584774 0.522498 0.842323 
-0.0739478 0.0564766 -0.00320012 -0.389449 -0.911886 0.0637521 
0.0381514 0.0610801 0.0168981 -0.466902 -0.225456 0.799506 
-0.0642269 0.162115 -0.0109933 0.00087538 -0.950106 0.24401 
-0.00960696 0.0643094 -0.0122976 0.792672 -0.579574 -0.167957 
0.0202856 0.125253 -0.0285866 0.456339 -0.665137 -0.582843 
0.0312504 0.110309 -0.0285375 -0.666151 0.34561 -0.652547 
0.0368659 0.158189 -0.0231954 0.348568 0.204308 -0.848702 
0.0284298 0.110046 -0.0241598 -0.840761 0.406977 -0.328364 
0.0365822 0.144452 -0.00312673 -0.0457705 0.32463 0.94044 
-0.00231613 0.09054 0.000937342 0.72182 -0.188914 0.654135 
0.0606439 0.107762 -0.0162624 0.690834 -0.459965 -0.526604 
0.0216862 0.136806 -0.0347199 0.0863858 -0.25725 -0.954002 
-0.065704 0.153751 -0.00625672 -0.369982 0.883931 0.0334414 
-0.0244378 0.172274 -0.040753 0.511797 -0.44521 0.426297 
-0.0691108 0.142268 -0.00180565 0.55933 -0.772691 -0.0157373 
-0.0223322 0.0630254 0.0244015 0.0994768 0.585845 0.774969 
-0.0216421 0.0538056 -0.00502141 0.239987 -0.967646 0.0714376 
0.0369593 0.0537522 0.00626664 0.298868 -0.743249 -0.51764 
0.021528 0.065737 -0.0292076 -0.43326 -0.439934 -0.777868 
-0.0668516 0.125157 -0.0136727 -0.715062 0.634216 -0.251703 
0.0299884 0.052812 -0.0173537 -0.028178 -0.997093 -0.00240364 
-0.0388839 0.0619738 0.0140008 -0.197506 -0.50837 0.794328 
-0.0455079 0.143553 -0.0314264 -0.513448 -0.501726 -0.587351 
0.0524245 0.141824 -0.00724919 0.575881 0.461977 0.664095 
-0.00345321 0.0752695 -0.00407246 0.810042 -0.440272 0.366111 
0.0832419 0.0898435 0.0116201 0.904678 0.0749214 0.410238 
-0.00168021 0.0821106 -0.0231627 0.759714 -0.444954 -0.456002 
0.0343448 0.0633826 0.0167869 0.650774 0.0540577 0.284565 
0.0351106 0.065295 -0.0337571 -0.359599 -0.726288 0.510915 
-0.0116738 0.123922 -0.0287504 -0.74928 0.236558 -0.610185 
0.0424931 0.128226 -0.0341807 -0.15634 -0.031027 -0.977236 
0.0661653 0.0676165 0.0254381 0.0695327 -0.139453 0.976852 
-0.0361752 0.0532517 -0.0193593 -0.0319273 -0.992153 0.0354465 
-0.0530888 0.0877087 0.0203672 -0.100338 0.1127 0.980738 
0.050275 0.0889306 -0.0086482 0.420807 -0.102767 0.692947 
0.0473363 0.0849768 -0.0122546 0.744415 -0.413601 -0.40675 
-0.0771608 0.17462 -0.00074876 0.495023 0.776965 0.0279422 
0.00249609 0.150942 -0.017835 -0.0624814 0.624447 0.691719 
-0.037143 0.181312 -0.00647498 -0.258551 0.59065 -0.679806 
-0.0557619 0.161399 -0.00669414 -0.192729 -0.931464 -0.0847532 
-0.0678718 0.124482 -0.00269923 -0.535764 0.786132 0.239155 
-0.0896931 0.143761 0.0139906 -0.176136 -0.942984 0.220375 
0.0452813 0.130298 -0.00198779 0.104551 0.0886073 0.983386 
0.00565416 0.148944 -0.0101703 -0.539165 0.672846 0.494129 
0.0204795 0.0572355 0.0225863 0.152173 -0.43861 0.80608 
0.0339356 0.0627326 0.0178551 0.796124 -0.206056 0.122227 
0.0233772 0.103419 -0.0219551 -0.831228 0.470579 -0.257667 
0.0161155 0.137565 -0.00273958 0.111041 -0.0308525 0.985396 
-0.0496519 0.105823 0.0053932 0.791941 -0.112354 0.589114 
0.0170239 0.088333 -0.0272469 -0.871043 0.153355 -0.442327 
-0.0329765 0.159628 -0.000332893 0.0108517 -0.34916 0.87659 
-0.0678735 0.0563063 -0.0143394 -0.43431 -0.842097 -0.308885 
-0.0840202 0.171042 0.0167675 0.184977 0.0927119 0.895279 
0.0516413 0.0768622 0.0169305 -0.400657 0.891352 0.157768 
-0.0741809 0.148262 0.0124695 0.178726 0.576062 0.736392 
-0.0366225 0.115915 -0.0115828 0.750213 -0.227821 0.597005 
-0.00229182 0.0919857 -0.0296734 0.647239 -0.333818 -0.679096 
0.0600028 0.0841251 0.00557205 -0.693869 0.686373 0.0203191 
-0.0566857 0.158161 -0.0141485 -0.89698 0.220703 0.264845 
-0.0739217 0.0626981 -0.0371037 0.546777 -0.382109 -0.701281 
-0.0701007 0.11631 0.00494489 -0.418463 0.471776 0.767005 
-0.0427498 0.0535697 0.00499276 -0.0682169 -0.94075 -0.28297 
0.01607 0.122481 -0.0295486 0.524645 -0.556236 -0.637222 
-0.0484971 0.179878 -0.0357943 -0.632277 0.674874 -0.0433765 
0.0323156 0.0529328 0.00613835 -0.159391 -0.939653 0.205031 
-0.0761706 0.113477 0.00222471 -0.636314 0.595366 0.475587 
0.00180935 0.147401 -0.0262704 -0.574677 0.647788 -0.500497 
-0.0894391 0.172291 -0.0066495 -0.269409 0.714085 -0.419065 
-0.01086 0.164235 -0.00866041 0.473728 0.612169 0.505276 
-0.0855459 0.164464 -0.00512313 0.143728 -0.280351 0.902011 
-0.0492524 0.119804 -0.0255052 -0.179638 -0.136534 -0.970948 
-0.098714 0.145597 0.00714025 -0.441879 -0.795445 0.343229 
0.0249345 0.156711 -0.015039 -0.00689157 0.958602 0.270608 
0.0708852 0.0803877 0.000649392 -0.455662 0.0219006 -0.864128 
0.0241866 0.0637635 -0.0462576 0.0602789 -0.46002 -0.775901 
0.0265971 0.0771742 -0.0411405 -0.356881 0.583628 -0.601903 
-0.0700339 0.056288 -0.0115882 -0.392665 -0.789075 -0.466977 
0.0485737 0.0644172 0.0227606 -0.41503 -0.018203 0.898912 
-0.0175793 0.0555916 -0.00861747 0.663872 -0.735346 -0.0565185 
-0.00574656 0.146086 -0.0180069 -0.523147 0.276267 0.74767 
-0.00857712 0.0676328 0.0127246 0.974829 -0.0582209 -0.0769677 
0.0123537 0.111107 -0.0215494 0.89226 -0.393602 -0.158857 
0.0231324 0.0644902 0.0117124 -0.128702 0.856967 0.238339 
-0.0504053 0.175691 0.00161593 0.345683 0.378759 0.841005 
-0.020384 0.0588981 0.00559937 0.595891 -0.683768 -0.0374815 
0.0327892 0.0736876 0.0264977 -0.454127 -0.183782 0.851864 
-0.084361 0.149904 0.0108338 0.27205 0.743038 -0.268699 
-0.0252799 0.14665 -0.0259886 0.495387 0.00109943 -0.842069 
-0.0877005 0.151968 -0.00679231 -0.278204 0.594726 -0.354528 
-0.0827233 0.0603816 -0.0383796 -0.386137 -0.21284 -0.858884 
0.00975753 0.05706 0.0246601 0.123855 -0.951606 0.127492 
-0.0268707 0.158733 -0.0354322 0.662172 -0.0102338 0.664821 
0.032283 0.074279 -0.0387886 0.576473 0.544062 -0.560984 
-0.0201064 0.072992 0.0140302 -0.481897 0.812656 0.174565 
0.0228928 0.0568607 7.51913e-05 -0.733395 -0.412016 0.499587 
0.0773569 0.148162 -0.00942829 -0.829284 0.421498 0.121218 
-0.0369906 0.161631 0.00043855 -0.107198 -0.602037 0.703444 
-0.0379567 0.170882 -0.000483348 0.544298 0.0741499 0.723981 
-0.0155381 0.154162 -0.00867154 0.52251 0.726402 0.179521 
-0.0128363 0.0639482 0.0011894 0.688048 -0.506767 0.500173 
-0.0923738 0.154241 0.00441901 0.343508 0.857398 -0.311555 
-0.0173774 0.103643 -0.0313283 -0.479009 0.244919 -0.837197 
-0.0968981 0.178411 -0.00137882 -0.177152 0.853239 -0.368797 
-0.0770852 0.111579 0.00270514 -0.806781 0.290163 0.489696 
0.0335502 0.146419 -0.00353469 0.134648 0.271379 0.949623 
0.0210206 0.122407 -0.0188734 0.48827 -0.808025 0.274718 
-0.0862783 0.160538 -0.0110685 -0.351362 -0.876207 0.029876 
-0.0739748 0.0834851 0.0145865 -0.259242 0.106831 0.956802 
0.0272056 0.0630558 -0.0438052 -0.20949 -0.864966 0.207164 
-0.0296199 0.0788375 -0.0307226 -0.24312 0.00575378 -0.952013 
-0.0148651 0.133436 -0.0163346 -0.469412 0.258262 0.779479 
-0.0605594 0.101644 0.0116306 0.0775264 0.344256 0.927379 
-0.0713814 0.140758 -0.0189408 -0.439205 -0.19275 -0.817173 
-0.0649886 0.175051 0.00382907 -0.537667 -0.194704 0.710014 
0.0341401 0.119446 -0.00686822 -0.819364 0.236226 0.512475 
-0.0695436 0.152755 -0.0056012 -0.239857 0.944639 -0.0856081 
-0.0838642 0.151411 0.0133618 0.350158 0.793349 0.0772653 
-0.0352366 0.180806 0.000809314 0.564742 -0.367589 0.44651 
-0.0453102 0.165745 -0.0354669 -0.442434 -0.106061 -0.866913 
0.0215155 0.0820449 -0.0328879 -0.505939 0.0942395 -0.849579 
-0.0881776 0.150917 0.011376 0.369052 0.737973 -0.108925 
0.0627534 0.132719 -0.0147507 0.413141 0.119917 0.859912 
0.0107682 0.144651 -0.00477294 -0.250754 0.337511 0.894478 
-0.0285027 0.170384 -0.0120147 0.439086 0.335341 -0.763216 
0.0108541 0.136486 -0.00239749 0.0466898 0.220172 0.971125 
-0.0798237 0.174865 -0.00465474 0.558287 0.501753 -0.613794 
0.0191136 0.0877562 -0.00742501 -0.685693 0.276633 0.661024 
-0.0631918 0.178884 -0.00316364 0.0479064 0.865638 0.476239 
-0.0482529 0.143041 -0.0284664 -0.0973032 -0.633585 -0.722328 
-0.0187649 0.0803722 0.0127994 -0.677826 0.105545 0.693649 
0.0504947 0.0540626 -0.011452 0.451766 -0.725612 -0.472087 
-0.0369295 0.068477 0.0266914 -0.0129004 -0.27367 0.938825 
-0.0432241 0.055916 -0.00590088 0.161446 -0.973657 -0.00852223 
0.0341695 0.0683462 -0.0432302 0.644456 0.450512 -0.580724 
0.0105183 0.120532 -0.0327578 0.478819 -0.283491 -0.824604 
0.0660394 0.110438 -0.00439492 -0.954908 0.0621695 0.18461 
-0.0400423 0.143664 0.00295203 0.17719 0.0177394 0.901959 
-0.0481664 0.0962749 -0.0154842 0.750372 -0.00402849 -0.644683 
0.000848327 0.083355 -0.00903027 0.899342 -0.338913 0.241846 
-0.0743362 0.105052 -0.0198164 -0.426174 0.134803 -0.891963 
-0.0829064 0.158972 -0.0127267 -0.279018 -0.838603 0.268593 
-0.0914075 0.150547 -0.00348388 0.130766 0.715569 0.34764 
-0.0209768 0.17194 -0.00539277 0.168635 0.20495 0.935676 
0.0887361 0.133566 -0.00893565 0.106418 -0.200391 0.893004 
0.0418214 0.146781 -0.0323049 0.104034 0.400119 -0.903961 
-0.0417389 0.174286 0.000418292 0.15484 0.270199 0.808691 
0.0453951 0.0749996 0.0153782 -0.292087 0.845305 0.34121 
-0.0211005 0.15439 -0.0116252 0.0811856 -0.166715 -0.948712 
-0.0485887 0.172585 -0.0323415 -0.229219 0.0790386 -0.867569 
0.0315883 0.145908 -0.0349024 0.149436 0.230479 -0.955295 
-0.0357904 0.0940869 -0.00564054 -0.0520266 0.978628 0.164444 
0.0305685 0.0830585 -0.0344407 0.118251 -0.0163692 -0.984715 
-0.0610804 0.130193 -0.00580301 -0.617613 0.665655 0.321924 
-0.0426596 0.0910504 0.00964283 0.436754 0.803688 0.377672 
-0.0754517 0.0577046 -0.00169989 -0.629853 -0.753477 0.174333 
-0.0379643 0.0604698 -0.0402852 -0.345772 -0.00549835 -0.916056 
0.0337492 0.0675562 -0.0442962 0.773316 0.27416 -0.521291 
0.0448908 0.149943 -0.0288024 0.275443 0.7007 -0.6518 
0.0721691 0.0939033 -0.00438521 -0.430557 -0.416352 -0.794049 
0.0600924 0.0539685 -0.00803283 -0.112981 -0.972181 0.113015 
-0.0437364 0.123395 -0.0265593 -0.178612 -0.260199 -0.936971 
-0.0631305 0.12947 -0.0072138 -0.408571 0.893404 0.0812558 
-0.0510661 0.173542 -0.0328834 0.310465 -0.705056 -0.456254 
0.0105053 0.12938 -0.00208658 0.228161 -0.131204 0.955188 
0.0346773 0.10466 -0.00332958 -0.411513 0.116189 0.890956 
-0.0654794 0.0949738 0.0139028 -0.0969525 0.351047 0.925764 
0.00578588 0.0560551 0.024234 0.331366 -0.708768 0.458274 
-0.0597036 0.0927224 0.0171438 -0.40607 0.464476 0.774407 
0.042608 0.141003 -0.0339959 0.23899 0.269604 -0.922573 
-0.0162829 0.0892066 -0.0325002 -0.117232 -0.11582 -0.980793 
-0.0998015 0.17498 -0.00257255 -0.894833 -0.0367945 0.343587 
-0.0283286 0.124329 -0.0161359 0.771115 0.000365602 0.551528 
-0.0810739 0.0956805 0.00810973 -0.721356 0.162802 0.650482 
0.0576393 0.0989182 -0.0117871 0.748054 -0.514021 -0.0716796 
0.0281016 0.156527 -0.0259751 -0.0708019 0.861386 -0.474861 
0.0423029 0.0820524 0.013395 -0.0431659 0.223587 -0.346871 
0.0348952 0.150104 -0.0327721 0.263946 0.60143 -0.740983 
0.00639432 0.0567001 0.0107779 0.437275 -0.0741589 -0.607502 
0.020961 0.0817538 0.00934739 -0.822685 0.402796 0.374148 
0.0609242 0.053948 -0.0198241 -0.0837326 -0.975476 0.0183539 
0.0377524 0.0707537 0.024079 0.601499 -0.556904 0.548467 
0.0461936 0.137557 -0.0335515 0.0741914 0.1338 -0.978981 
-0.0756541 0.158062 -0.01387 0.180627 -0.626548 0.713339 
-0.0750803 0.0607581 0.00664258 -0.598615 -0.67372 0.41919 
0.0369631 0.0593747 -0.0497014 0.390915 -0.319158 -0.843617 
-0.0709475 0.0550105 -0.00303 -0.495949 -0.86378 0.0434768 
-0.034455 0.0532239 -0.0188318 -0.0614691 -0.972109 0.168461 
0.0397595 0.100467 -0.0344683 0.0742082 -0.0458171 -0.990934 
-0.0300352 0.161199 -0.0312513 0.926462 0.271019 0.118776 
0.0264649 0.0652489 0.0125399 -0.407366 0.734242 -0.115449 
-0.081081 0.0582491 -0.0264511 0.000698629 -0.997464 -0.00173813 
-0.0829038 0.179056 -0.00340175 0.320146 0.660128 -0.665149 
0.0704137 0.139506 -0.0119826 -0.556922 0.517704 0.567046 
0.0710228 0.131125 -0.0104688 -0.337774 -0.000585879 0.925177 
-0.0440822 0.0781323 0.0274468 0.400469 0.887286 0.150189 
0.04646 0.155771 -0.0218401 0.132449 0.40975 -0.83933 
-0.0654766 0.152231 -0.0171035 -0.254393 0.911791 0.158223 
-0.0231159 0.0608426 -0.033 0.8142 -0.559593 0.102405 
0.0247118 0.126741 -0.0275249 0.319663 -0.7318 -0.589336 
0.0535764 0.103615 -0.0275019 0.687847 -0.408583 -0.586323 
-0.0294011 0.169785 -0.0156203 0.874756 0.457904 0.0565813 
0.0134791 0.112562 -0.0200699 0.82645 -0.521058 -0.0532199 
-0.0596782 0.169444 -0.0277918 -0.224287 -0.0924924 -0.929156 
-0.0876112 0.168592 -0.011949 0.0362067 0.705986 -0.661074 
-0.0322547 0.0834664 0.011337 0.421765 0.519111 0.686555 
