ply
format ascii 1.0
element vertex 822
property float x
property float y
property float z
property float nx
property float ny
property float nz
end_header
0.303756 -0.262441 -0.415059 0.476369 -0.764949 0.433504 
-0.980705 -0.29333 0.178689 -0.963489 -0.251028 -0.0931381 
-0.0796731 0.326418 0.0542275 0.106287 -0.768659 0.630767 
-0.936273 -0.280778 0.300935 0.379352 -0.790851 -0.480256 
-0.806521 -0.270666 -0.246872 0.0852746 -0.219841 0.971801 
0.714374 0.634905 0.227171 0.177265 0.349085 0.920172 
0.417614 -0.319549 0.385819 0.0954895 -0.894113 -0.437543 
0.173308 -0.181755 0.265169 0.010753 -0.743368 0.668796 
-0.41708 -0.11639 0.294336 -0.157223 0.280755 -0.946814 
-0.59231 0.0736922 0.22915 0.479348 -0.700067 -0.529275 
-0.16546 0.283077 -0.177468 0.988343 -0.123539 0.0889698 
-0.542469 -0.087015 0.326291 -0.0339664 0.101013 -0.994305 
0.372515 0.498127 -0.221623 0.0648436 0.713214 -0.697941 
0.544336 -0.0926556 -0.178361 -0.755519 0.263122 -0.599966 
0.206063 0.508694 0.177852 -0.587358 0.721213 0.367236 
0.386769 0.328436 0.345249 0.143259 -0.271099 -0.951831 
0.127597 0.272601 -0.272064 0.105686 -0.553742 0.825954 
-0.929412 -0.457177 0.300687 -0.112591 0.767484 0.631104 
0.331167 -0.0871386 0.335573 -0.223987 -0.130392 0.96583 
-0.971217 -0.455044 -0.279518 0.15987 -0.324362 0.932326 
-0.142943 0.239193 -0.247747 -0.915138 -0.0480209 -0.400271 
-0.00368836 -0.291127 0.0343262 0.0634341 0.99676 -0.0494613 
0.359896 -0.375093 -0.598031 0.339128 -0.717082 0.608922 
-0.667011 0.0728931 0.0527485 -0.505457 0.815426 0.282125 
0.221033 0.558449 0.120821 -0.70519 0.661726 0.25461 
0.330928 -0.207614 -0.19442 -0.362072 0.845893 0.391622 
0.297744 0.635709 0.0701446 0.623493 -0.660386 0.418504 
0.560182 0.385785 0.33354 -0.519826 -0.613484 -0.59449 
-0.156206 0.282146 0.0660559 0.483085 -0.859107 -0.169012 
0.23432 0.193043 -0.316021 0.42015 0.45455 -0.785403 
-0.957534 -0.2888 -0.22702 -0.436143 0.899423 0.0285955 
-0.899362 -0.4293 -0.265561 0.073449 0.649577 -0.75674 
-0.105921 -0.298437 0.0603786 -0.0706333 -0.9869 0.145048 
0.804941 0.552879 0.196638 -0.157139 0.585303 -0.795442 
0.799533 0.577113 0.208469 -0.0942554 0.337672 -0.936533 
0.305911 0.379453 -0.253964 -0.539492 0.702443 0.464243 
0.562098 -0.12339 -0.291073 0.926965 0.275577 -0.254544 
0.414618 0.356038 0.331293 0.0159842 0.279471 0.960021 
0.14929 0.284756 -0.268901 -0.0668322 0.570318 -0.818701 
0.391169 0.454626 0.333916 -0.0447492 -0.407327 -0.912186 
0.718066 0.546098 0.192548 -0.373182 0.409107 -0.832686 
0.784455 0.484755 0.161709 -0.690782 0.628755 -0.357054 
-0.00133405 0.345652 0.0309453 0.360887 -0.630256 0.687413 
-0.981489 -0.160622 0.0691586 -0.66824 0.671728 0.319746 
0.710225 0.271641 -0.00510982 0.969617 -0.159255 -0.185688 
-0.750487 0.0188149 0.0674426 0.600626 -0.796372 -0.0709927 
0.470978 0.720098 0.0568633 0.28456 -0.944194 -0.165899 
-0.866604 -0.516266 -0.366563 0.194709 0.653472 -0.73148 
-0.926348 -0.237037 0.229808 -0.228257 0.803944 0.549157 
0.182827 0.526225 0.076374 -0.700258 0.713413 -0.0261004 
-0.975435 -0.31788 -0.179361 -0.50063 -0.788967 -0.356231 
-0.913173 -0.485416 -0.322983 -0.0236641 -0.971343 0.236501 
0.555896 -0.0394782 0.245722 0.9803 -0.193351 0.0403372 
-0.095367 -0.0564576 0.300965 0.262127 -0.55507 0.789422 
0.109622 0.034583 0.350043 -0.184589 -0.0486949 0.981609 
-0.995271 -0.405207 0.260497 -0.703179 -0.311067 -0.639357 
-0.888973 -0.416998 0.377854 0.28032 0.534487 0.797336 
0.39841 -0.275042 -0.293734 -0.325927 0.780642 -0.533263 
-0.612007 0.120203 0.0201256 0.35527 -0.934679 -0.0125937 
0.366681 -0.178093 -0.34968 -0.378687 0.629444 -0.678525 
-0.92744 -0.515317 -0.401111 -0.0895646 -0.653695 0.751439 
0.305963 -0.200963 0.191031 0.204452 -0.953914 -0.219651 
-0.0888447 -0.0590819 -0.255924 0.0581814 0.518203 0.853276 
0.917409 0.523388 0.0564272 0.74578 -0.545547 0.382349 
0.196262 -0.194255 0.244355 -0.0978757 0.844118 -0.527148 
-0.0919621 0.124368 -0.323173 -0.570397 0.0268633 -0.82093 
-0.0920695 0.0695959 0.351086 0.208521 -0.219391 0.953093 
0.21077 -0.249165 0.00164523 0.305359 -0.929459 0.20703 
0.386703 -0.391929 0.627755 0.56829 -0.161355 0.806853 
-0.957463 -0.304317 0.0406661 0.318606 0.946529 -0.0507339 
0.779401 0.741353 -0.0374222 -0.0623858 -0.714101 0.697258 
0.271732 -0.0658654 -0.270997 -0.297191 -0.216506 -0.929947 
-0.0823463 -0.0834195 -0.241315 -0.0116577 -0.570076 -0.821509 
0.92447 0.572978 0.103263 0.780402 -0.620699 0.0755314 
0.645666 0.0683361 0.00708242 -0.778542 0.460314 0.426595 
0.407861 -0.168027 0.1869 0.211857 -0.532544 -0.819459 
0.675036 0.265493 0.166712 -0.69632 0.47608 -0.53711 
-0.217592 0.153873 -0.275351 0.0558791 -0.796754 0.601715 
0.28393 -0.33473 0.546346 -0.231607 0.913078 0.33563 
0.695959 0.339797 0.0591357 -0.988887 -0.143307 -0.0395559 
0.408078 -0.245257 -0.449235 -0.13138 0.774218 -0.619133 
-0.752387 -0.311052 -0.0126988 -0.0955465 0.961888 -0.256207 
-0.0202286 -0.283078 -0.0255655 -0.0243623 -0.984097 -0.175952 
0.252442 -0.272372 0.331211 0.890725 -0.194314 0.410914 
0.887126 0.717093 0.0554341 0.394633 0.911322 0.117293 
0.253676 0.130012 0.371567 0.144945 -0.222834 0.964021 
0.858815 0.575478 0.186901 -0.509585 0.392188 -0.765841 
0.107605 -0.282054 0.021189 0.299229 -0.950348 0.0854378 
0.498933 0.407619 0.35299 -0.0399455 0.517816 0.854559 
-0.535504 -0.241022 -0.179798 0.461848 -0.700991 -0.543422 
0.362693 0.681393 0.0647174 -0.437325 0.862117 0.255932 
-0.285747 0.137691 -0.274605 -0.160691 0.873625 -0.459302 
-0.249162 -0.0933835 0.298266 -0.104788 0.661914 -0.742219 
-0.0665794 -0.133847 -0.203805 -0.000149186 -0.589555 -0.807728 
0.172017 0.233122 0.348761 -0.177488 0.375865 0.909519 
0.685815 0.260629 0.142362 -0.729447 0.454019 -0.511639 
-1.01416 -0.483501 -0.375463 -0.271487 0.758892 -0.591927 
0.917336 0.531304 -0.00965015 0.836888 -0.448573 -0.313689 
-0.628968 0.0588559 -0.164431 0.588675 -0.65094 0.479311 
0.500224 -0.322719 0.498148 -0.63142 -0.400197 -0.664192 
-1.0553 -0.489469 -0.342759 -0.168185 0.624565 -0.762648 
-1.01893 -0.421118 -0.270086 0.508522 0.42142 -0.750873 
-1.01023 -0.255776 0.0568744 0.800386 0.533638 -0.273153 
-0.10941 0.00778537 0.331111 0.0370652 -0.318719 0.947124 
0.92164 0.523471 0.0306475 -0.909941 0.403325 0.0966226 
0.538137 -0.0714364 0.214439 0.792268 -0.536398 -0.29084 
0.77645 0.553544 0.192954 0.0786118 0.376412 -0.923111 
0.30923 -0.289739 0.458862 -0.555741 0.728344 0.400833 
0.269597 0.149734 -0.291174 -0.723243 -0.0685047 0.687188 
-0.994269 -0.501244 -0.387034 -0.13429 0.606319 -0.783801 
0.688385 0.622817 -0.137424 0.427979 0.163651 -0.888849 
0.371693 -0.0515771 0.35094 0.00137606 -0.0970261 0.995281 
0.188094 0.217265 0.35744 0.202819 -0.360238 -0.910546 
0.41493 -0.0583709 0.341353 -0.0892537 -0.324621 -0.941623 
0.315153 -0.301145 0.510811 -0.568743 0.778006 0.266903 
-0.877045 -0.36575 0.205272 -0.0756392 0.755206 0.651109 
-0.0529578 -0.0257127 -0.279467 -0.0736772 -0.459155 -0.885295 
-1.02697 -0.220606 0.0562871 -0.993568 0.00965496 0.112825 
-0.859304 -0.368662 -0.201674 -0.20664 0.825448 -0.525296 
0.337705 0.491827 -0.178217 0.799346 0.134316 0.585667 
-1.01611 -0.205545 0.075791 -0.850748 0.252377 0.461014 
-0.998087 -0.366197 0.261588 -0.864646 -0.0257272 -0.501723 
-0.546313 -0.283676 -0.0364594 -0.0633823 0.950926 0.302857 
0.3814 -0.0350185 -0.294192 0.0227284 -0.388359 0.921228 
0.330296 -0.282277 0.493112 0.385558 -0.8841 -0.264033 
-0.636736 0.0834641 -0.102933 0.324559 -0.895522 0.30447 
-0.0981725 -0.0153617 -0.276239 -0.10848 -0.404148 -0.908238 
0.709416 0.389109 0.0665101 -0.947839 0.302239 -0.101257 
-0.604745 0.106614 0.0469727 0.449404 -0.893011 0.0238231 
0.355873 -0.17234 0.00935999 -0.508336 0.848376 -0.147827 
0.461845 0.404861 0.322053 0.246996 -0.305808 -0.919497 
0.0195176 -0.00162762 0.342527 -0.0824862 -0.372555 0.924337 
0.527491 -0.101329 -0.16333 -0.461602 0.849978 0.253894 
0.198809 0.244821 -0.287712 -0.116006 0.418647 -0.900709 
0.324341 0.657644 0.0669864 0.566117 -0.709173 0.42022 
-0.89234 -0.464199 0.30069 -0.0195174 0.668765 0.743218 
0.656471 0.0929302 0.00664829 0.788689 -0.519725 -0.328414 
-0.961723 -0.141619 0.0716158 -0.6173 0.684894 0.387119 
0.248225 0.552289 0.030242 -0.478546 0.842163 -0.248504 
0.129967 0.0467194 0.354036 -0.107721 -0.144698 0.983595 
-0.854774 -0.492021 -0.347756 0.249134 -0.688076 0.68153 
-1.0392 -0.395227 -0.278508 -0.966423 0.0321081 0.254942 
-0.95921 -0.317481 0.331523 0.517794 -0.625358 -0.583795 
-0.0748051 -0.10824 -0.223035 0.0247823 -0.59267 -0.805064 
0.230705 0.541081 -0.065427 0.444693 -0.872065 0.204331 
-0.153517 0.259614 -0.219635 0.949296 0.0781485 0.304517 
0.375372 -0.171533 0.39926 -0.20225 0.582934 0.786945 
0.655562 0.337534 0.272 0.702167 -0.264066 0.661234 
0.458694 -0.291767 0.520098 -0.287638 -0.707469 -0.645564 
0.470546 -0.278691 0.501259 0.276023 0.73768 0.616149 
-0.0504601 -0.186491 -0.16529 -0.127067 0.567541 0.813481 
-0.945259 -0.351536 -0.178267 -0.285385 -0.865784 0.411063 
-0.417749 0.202409 0.046426 -0.352973 0.93389 -0.057092 
-0.944907 -0.396075 0.369184 -0.0545444 0.348165 0.935845 
0.922423 0.699118 -0.0100241 -0.411479 -0.852371 0.32272 
-0.0725411 0.0524908 -0.30951 0.292696 0.268563 0.917716 
0.17974 0.524646 0.0396425 0.707966 -0.46989 0.527246 
-0.162893 0.280034 0.00853465 0.281047 -0.9104 0.303618 
0.831547 0.561386 -0.131978 0.0264346 -0.259974 -0.965254 
0.282707 -0.301432 -0.462293 -0.659483 0.741147 -0.125627 
-0.297029 -0.100657 0.299729 0.0974303 -0.576001 0.811622 
-0.5959 -0.114883 -0.267008 -0.106536 -0.141944 -0.984125 
-0.917108 -0.407871 0.374432 -0.0792217 -0.545699 -0.834228 
0.549076 -0.0570555 0.230395 -0.921072 0.233178 0.311855 
0.481687 -0.28517 -0.494892 9.2017e-06 0.735723 -0.677282 
0.284321 -0.266349 -0.400505 0.470346 -0.705755 0.529797 
-0.0291953 0.190687 -0.289586 -0.0648907 -0.132864 0.989008 
0.262872 0.482691 0.247113 -0.449499 0.321118 0.833567 
-0.107925 0.174883 -0.28436 0.205954 -0.382389 0.900756 
0.25016 -0.196028 -0.23225 -0.442617 -0.824555 -0.352419 
-0.876022 -0.354354 -0.302565 0.0159108 -0.520474 0.853729 
-0.577822 -0.202015 -0.234488 0.268625 -0.553001 -0.788689 
-0.0528383 -0.235505 0.15992 -0.237369 0.759029 -0.606243 
0.104943 0.257818 -0.274692 -0.102062 0.589932 -0.800977 
0.366465 -0.152851 -0.329863 -0.358871 0.465836 -0.808831 
-0.573208 0.0230128 0.290791 -0.44028 0.490474 0.752056 
-0.583345 0.121019 0.157574 -0.456657 0.838285 0.297899 
0.258741 -0.22864 0.0034176 0.406204 -0.897642 0.170992 
0.602819 0.74348 0.0634605 0.198452 -0.961662 -0.189267 
0.496938 -0.0284968 0.330123 0.291448 0.298297 0.908888 
-1.04735 -0.436603 -0.305804 -0.592356 -0.350117 0.725625 
-1.04421 -0.416779 -0.292184 -0.82224 -0.106251 0.559135 
-1.01513 -0.326257 -0.22539 0.596301 -0.726299 0.341929 
0.111798 -0.465721 -0.468692 -0.089875 -0.965458 0.244569 
0.523273 -0.186678 0.396524 0.714214 0.343121 0.610054 
-0.0571308 -0.221418 0.179026 0.0713866 -0.733924 0.67547 
0.71776 0.214907 0.0431785 -0.984488 -0.00930313 -0.175208 
0.308713 -0.0931794 0.327362 -0.234366 -0.224826 0.945794 
0.930214 0.689752 0.103357 0.796264 0.531713 0.288522 
0.850698 0.518281 0.00349567 -0.120644 0.969735 0.212271 
0.382311 -0.265497 0.466252 -0.0580258 0.688537 0.722876 
0.544135 -0.208739 -0.38365 -0.814766 -0.277984 0.508804 
0.323425 -0.33108 -0.31773 -0.250781 0.836667 -0.486925 
-0.737125 -0.284966 -0.240859 -0.174636 0.501697 0.847232 
0.382795 -0.000747253 -0.27187 -0.071963 -0.310763 0.947759 
-0.160529 0.167201 -0.283657 0.26508 0.379881 0.886241 
0.153128 0.25596 0.336684 -0.0563554 0.369663 0.927455 
0.391809 0.693781 0.0672863 -0.362436 0.932009 0.000591473 
0.211358 -0.345333 0.385404 0.840899 -0.23778 0.486158 
0.66467 0.312855 -0.138684 0.874226 0.155593 -0.459913 
-0.533831 -0.16446 -0.244894 0.239879 -0.493796 -0.835837 
0.581686 -0.0407074 0.0132106 0.544628 -0.561182 0.623262 
0.758402 0.716862 0.166184 -0.132733 0.715018 0.68639 
-0.403741 -0.301134 0.00490941 0.0189121 0.993081 0.1159 
0.3282 -0.0284498 -0.285433 -0.00171654 0.056659 0.998392 
0.729193 0.285632 0.0342845 0.9988 0.0462327 0.0161324 
0.724335 0.678869 -0.10315 0.276229 0.529678 -0.801959 
0.272564 -0.343279 -0.335191 -0.0121238 0.720853 -0.692982 
-0.867 -0.332063 0.164965 -0.000960298 0.885459 0.464717 
-0.0294345 0.330952 0.0305709 -0.307525 0.788659 -0.532395 
0.399342 0.485168 -0.227601 0.0164281 0.413232 -0.910478 
0.928751 0.675131 0.0601743 0.884473 -0.0155039 0.466333 
0.252899 0.164027 -0.320981 0.511293 -0.0184135 -0.859209 
0.854044 0.532637 -0.0942837 0.0181938 -0.873222 -0.486983 
0.90084 0.677126 -0.0526599 0.276322 0.641246 -0.715856 
0.80854 0.579001 -0.123973 -0.276743 -0.279425 -0.919421 
0.950481 0.707813 0.0603738 -0.64821 -0.624962 -0.435025 
0.2841 0.363675 -0.257796 0.478325 -0.861536 0.170176 
-0.605571 -0.0668887 -0.265035 0.175931 -0.181265 0.96757 
-0.102598 0.0969386 0.356952 -0.317743 0.051834 -0.946759 
-0.832813 -0.23921 0.268125 -0.156669 0.599959 0.784541 
0.254841 -0.310746 0.430949 -0.121458 -0.713347 0.690206 
0.384141 -0.309859 -0.331384 0.275641 -0.787774 0.550849 
-0.145315 0.176699 -0.226614 0.429158 0.611679 -0.664584 
-0.904286 -0.240823 0.242542 -0.170719 0.845234 0.506393 
0.299349 -0.209753 -0.203605 0.179619 0.853413 -0.489309 
-0.0839752 -0.0371952 0.319287 -0.200853 0.384084 -0.901187 
0.310716 0.0527422 0.38381 -0.252537 -0.00370268 -0.96758 
-1.02819 -0.368475 0.324548 0.931467 -0.312023 -0.18711 
-0.811455 -0.378163 0.244113 -0.536952 0.658065 0.527857 
0.154811 0.0629675 0.357912 -0.0740036 -0.0722336 0.994639 
0.198431 0.088121 0.360332 -0.136877 -0.00693743 0.990564 
0.903372 0.670401 0.149585 0.716458 0.239946 0.655068 
-0.883246 -0.374357 -0.34623 -0.236903 -0.234548 0.942796 
0.720606 0.585329 -0.123314 0.336778 -0.179467 -0.924323 
0.0805442 0.458139 0.0821317 -0.363652 0.829636 -0.423628 
0.298325 0.528155 -0.179385 0.595913 0.624903 0.504365 
0.829872 0.545569 0.181746 -0.334172 0.687518 -0.644707 
-0.531775 -0.236787 0.244465 0.0599336 -0.759235 0.648051 
0.431808 -0.298283 0.355766 -0.113042 0.832848 0.541836 
-0.136947 0.208426 0.314097 0.348971 -0.738404 -0.577043 
-0.893683 -0.411316 -0.245804 0.0399955 -0.716803 0.696127 
-0.223788 -0.089048 0.299645 0.0642731 -0.577443 0.813897 
-0.996382 -0.511148 0.388797 -0.171329 0.890209 0.422106 
0.554355 -0.0576095 0.0145135 0.563448 -0.81898 0.108614 
0.914756 0.694883 0.0609776 0.549643 0.814857 0.18412 
-0.952367 -0.513636 -0.394169 -0.0621004 0.570918 -0.818655 
-0.890569 -0.412643 -0.324067 -0.784739 -0.0805787 -0.614567 
0.741103 0.693663 -0.0821266 0.121395 -0.803549 0.582729 
0.0814851 0.0248806 0.342547 -0.0365702 -0.202311 0.978638 
0.120213 -0.478709 0.490521 -0.547624 0.466835 0.694387 
0.488808 -0.332109 0.517066 -0.685441 -0.326196 -0.650974 
0.88514 0.525161 0.0983043 -0.429099 0.885048 0.180455 
0.540422 -0.00897308 0.28553 -0.799337 -0.0861972 -0.594669 
-0.0858505 -0.102043 0.273337 -0.171137 0.546606 -0.819716 
0.966437 0.612629 0.0325225 -0.930001 0.201144 -0.307635 
0.776591 0.617655 0.22184 -0.0354199 0.0602602 -0.997554 
-0.134898 0.223429 -0.26743 -0.785397 0.142809 -0.602293 
0.192387 -0.445914 -0.558902 0.364345 -0.420319 0.831015 
-0.979067 -0.242006 0.165235 0.889035 -0.363968 -0.277747 
0.488723 0.440119 0.304263 0.0969704 0.61923 0.779199 
-0.536486 -0.256641 -0.156938 -0.376927 0.830451 0.410217 
-1.05264 -0.516278 -0.367219 -0.529737 0.469982 -0.706042 
0.942985 0.70622 0.0370275 0.624566 0.763664 0.16351 
-0.369814 -0.301945 0.00903204 0.0439318 -0.993328 0.106632 
0.864969 0.726256 0.0526784 0.330443 0.941607 0.0646774 
0.694902 0.776615 0.0639234 0.249787 -0.958791 -0.135377 
0.185774 0.521518 0.104747 0.640649 -0.736626 -0.216684 
-0.898695 -0.553846 0.406497 0.490979 0.395662 0.776138 
0.525861 -0.229949 -0.416085 0.535067 0.544671 -0.645784 
0.766626 0.477196 0.0551046 -0.575018 0.703949 -0.416905 
-0.537739 -0.28136 0.0649596 -0.0115884 -0.993108 0.116625 
-0.0309305 -0.247093 -0.102488 -0.161018 0.791898 0.589043 
0.143062 -0.455039 -0.539182 0.238698 -0.971 0.0134996 
0.863871 0.51436 0.0595174 -0.0762133 0.98012 -0.183181 
0.903213 0.577277 0.0628272 0.712819 -0.687788 0.137247 
-1.02568 -0.508173 0.357382 -0.546666 0.577737 0.606115 
0.493891 -0.0988503 0.188583 -0.548904 0.626743 0.55308 
-0.0736193 -0.149028 0.236912 -0.124977 0.578119 -0.806324 
0.610482 0.360791 0.317226 -0.57907 -0.202616 -0.789699 
0.947941 0.63618 0.0473436 0.751683 0.067576 0.656053 
0.199573 0.512817 0.152062 -0.646639 0.663055 0.377115 
-0.168429 0.248176 -0.122457 -0.980662 -0.159821 -0.112958 
0.413214 -0.258273 0.465077 -0.0288101 0.768012 0.639788 
0.464751 -0.302394 0.395736 -0.34261 0.923822 -0.170798 
0.626189 0.748868 0.0644662 -0.279806 0.947784 0.153014 
-0.529101 -0.253567 0.220217 -0.0548369 -0.839831 0.540071 
0.144811 -0.407186 -0.401379 0.141887 -0.718604 0.680791 
0.447295 -0.368031 0.575442 0.575258 0.491345 0.653956 
0.787543 0.486188 0.0462722 -0.555709 0.714124 -0.425693 
-0.489052 -0.298728 -0.00736712 0.103295 0.994609 -0.00908675 
-0.769195 -0.327972 0.195397 -0.443731 0.883107 0.152399 
-0.579874 0.0424789 0.270568 0.514024 -0.562007 -0.648018 
0.711726 0.6073 -0.129172 0.375973 0.057223 -0.924862 
0.130991 0.484317 0.0616607 0.55107 -0.646223 0.527938 
-0.27352 0.260229 0.0278906 -0.407527 0.902778 -0.137524 
0.700855 0.238253 0.0499109 0.99712 -0.00877939 0.0753274 
-0.120308 0.189473 -0.299027 0.0814933 -0.219443 0.972216 
0.201063 -0.175788 -0.223645 0.0133392 -0.0309848 -0.999431 
0.295362 0.165744 0.364842 0.270805 -0.232545 0.934124 
0.309721 -0.200423 0.00808618 0.509998 -0.860092 -0.0119421 
0.345362 -0.420792 0.509787 0.0858566 -0.820186 -0.565618 
-0.601085 0.0966409 0.187223 -0.547951 0.727786 0.412404 
-0.0607685 0.366913 0.0677171 -0.280234 0.569262 -0.772923 
0.164798 -0.450976 -0.552629 0.421623 -0.716056 0.556326 
-0.860836 -0.293585 -0.263092 -0.0613143 0.693615 -0.717731 
-0.166867 0.277075 -0.0195096 0.219442 -0.950003 0.222125 
0.776053 0.583311 0.206871 0.031793 0.393786 -0.918652 
0.470284 -0.110945 0.185459 -0.461598 0.502071 0.731336 
0.673616 0.761163 0.0629279 0.331444 -0.943144 0.024967 
0.492853 -0.273898 -0.476826 0.0666284 0.700412 -0.710622 
0.257788 -0.0847764 -0.265687 0.33254 0.0745583 0.940137 
0.437354 -0.154438 0.184336 0.309424 -0.558863 -0.769369 
-0.110606 0.123594 0.358136 0.359031 0.279705 0.890428 
-0.501719 0.169038 0.0509762 -0.369093 0.928846 0.0318716 
0.721402 0.409655 0.0430216 -0.809577 0.445465 -0.382291 
0.887279 0.631203 -0.0838556 0.761794 0.169029 -0.625379 
0.045962 0.0092616 0.343337 0.00296552 -0.190732 0.981638 
0.968617 0.637841 0.0295126 0.936104 0.0347093 0.350008 
0.414668 0.701356 0.0653717 -0.303524 0.951676 -0.0467645 
0.444781 -0.119525 0.00889589 0.460728 -0.837931 0.292576 
-0.799075 -0.338565 0.192889 0.341803 -0.859106 -0.380931 
0.499249 0.442979 -0.253852 -0.0820543 -0.133068 0.987704 
0.841729 0.736199 0.052215 0.462916 0.879396 0.111223 
0.446541 -0.303075 0.538571 0.292771 0.718191 0.631258 
0.252361 -0.233093 -0.263409 0.683754 0.401621 -0.609246 
0.236256 0.166881 0.378805 -0.0651165 0.0715462 -0.995309 
-1.04358 -0.552724 0.399467 0.420477 -0.518816 -0.744331 
-0.112484 0.328105 0.02822 0.15444 -0.865397 0.476693 
-0.96833 -0.340951 -0.175661 -0.767301 -0.636307 0.079767 
0.492469 -0.0431835 -0.285205 -0.298233 -0.414464 0.859812 
0.255819 -0.266585 -0.376319 -0.374075 0.818163 -0.436666 
0.838217 0.521063 -0.0171961 0.131161 -0.922636 -0.362685 
-0.0331106 -0.018706 0.32606 0.152473 0.423802 -0.892829 
0.0817386 -0.288059 0.0251043 0.193937 -0.97614 0.0976698 
0.28186 -0.435508 0.607435 0.184189 0.653961 -0.733764 
0.263008 -0.445183 0.595668 -0.0222712 -0.844842 0.534553 
-0.532651 -0.185382 -0.232089 0.269537 -0.551624 -0.789342 
0.731553 0.44523 0.0642333 0.837804 -0.474322 0.270377 
-0.979531 -0.401835 0.366747 0.243484 -0.353594 -0.903154 
-0.765864 -0.325889 0.22896 -0.606799 0.786933 -0.111945 
-0.890406 -0.367545 -0.193545 -0.0323204 -0.8461 0.532043 
0.226221 -0.385122 0.38241 -0.291374 -0.516015 -0.805499 
0.193202 0.517078 0.12925 -0.623827 0.692889 0.361586 
-0.983488 -0.310244 0.196424 0.872846 0.321477 0.36714 
-0.719055 0.0614143 0.0575165 -0.72904 0.640785 0.240614 
0.354989 0.427542 -0.253829 0.136236 -0.450573 0.882283 
0.194473 -0.361803 0.404868 0.793327 -0.32073 0.517459 
0.884286 0.52155 -0.0531042 0.621152 -0.717425 -0.31539 
0.510907 0.45851 0.299295 -0.121283 -0.407292 -0.905209 
-1.0284 -0.527696 -0.390182 0.456043 -0.443706 0.771459 
-0.989016 -0.34672 0.23615 0.934238 0.0670298 0.350295 
0.919499 0.564352 0.0380273 -0.803496 0.417827 -0.424045 
0.226361 0.106104 0.366786 0.0110369 -0.184299 0.982808 
-0.00435752 0.198452 -0.286749 -0.0359927 0.248897 -0.967861 
-0.917957 -0.312946 0.0424424 0.15532 0.986407 -0.0536334 
0.414192 -0.338459 -0.558467 0.319364 0.564418 -0.761209 
-1.02787 -0.44799 0.329105 -0.994943 0.0735181 -0.0684359 
-0.622188 -0.00655871 -0.234626 0.366412 -0.52029 0.771389 
0.707386 0.324216 0.185874 -0.860992 0.307784 -0.404923 
-0.583215 -0.177448 -0.251588 -0.138326 0.419989 0.896926 
0.317611 0.183239 0.36337 0.259953 -0.209424 0.942638 
0.700627 0.150513 0.0399942 -0.953027 0.271207 -0.134854 
-0.940435 -0.124548 0.073687 0.620565 -0.76477 -0.173282 
0.884256 0.602196 -0.0916364 -0.569651 -0.286047 0.770503 
0.147927 -0.410049 0.453231 -0.630163 0.710988 0.312074 
0.228855 -0.350714 -0.513232 0.846387 -0.527638 -0.0722938 
0.267992 -0.241951 0.297476 -0.703661 -0.46755 -0.535031 
-0.848316 -0.463041 -0.328358 0.00738262 -0.350754 0.936439 
-0.585785 0.0581151 0.252858 -0.491195 0.610567 0.621237 
0.906515 0.543806 0.0199604 0.884517 -0.401205 -0.238042 
0.704972 0.607342 0.238077 0.371302 0.116378 0.92119 
0.220707 0.55958 0.0926464 0.714323 -0.698619 -0.0409152 
-0.846535 -0.337945 0.17691 0.134871 -0.879296 -0.45678 
0.295144 0.0137702 0.364582 0.0286481 -0.327059 0.94457 
-0.959632 -0.231696 0.196851 0.676319 -0.579056 -0.455287 
-1.01975 -0.513945 0.382973 -0.508045 0.672852 0.537736 
-0.541804 -0.144443 0.310039 -0.0806469 0.426285 -0.900987 
0.691021 0.328782 0.22498 0.763618 -0.445016 0.467812 
-0.144649 0.271561 0.188419 -0.791712 0.571976 0.214559 
-0.338228 0.127634 -0.276436 0.184948 -0.188173 0.964565 
0.451581 0.48645 -0.223287 0.126734 -0.489333 0.862839 
0.299556 0.0815899 0.364859 0.00661677 0.257758 0.966187 
-0.596763 0.0854104 0.208745 -0.493187 0.722727 0.484182 
0.219604 0.214816 -0.305838 -0.0434175 -0.418107 0.90736 
0.322585 0.454518 0.289647 0.619356 -0.244461 -0.746081 
-0.809381 -0.31687 -0.0171484 -0.0793287 0.95547 0.284225 
-0.198816 -0.0814281 0.302262 -0.0776772 0.651637 -0.754543 
0.370707 -0.390987 0.47123 0.137572 -0.821895 -0.552777 
-0.921152 -0.109507 0.0719586 -0.588064 0.786262 0.189665 
-0.536075 -0.279173 0.0930993 -0.000171724 0.983363 -0.181651 
-0.0624645 -0.202255 0.197819 -0.135484 0.635375 -0.760226 
-0.151447 -0.0652586 0.309145 -0.00137677 0.576326 -0.817219 
-0.133623 0.31631 0.0274411 -0.525733 0.814849 -0.244185 
0.881822 0.502626 0.131954 0.202765 0.940986 -0.270984 
0.185435 0.262486 -0.276619 -0.113894 0.354677 -0.928026 
0.341979 -0.3911 -0.601309 -0.46676 0.785602 -0.406158 
0.365851 -0.406178 0.638675 -0.498185 0.607755 0.618422 
-0.102761 -0.0215988 0.319017 0.159335 -0.270354 0.949485 
0.781956 0.448813 0.00418719 -0.780962 0.608628 -0.140252 
0.933949 0.703521 0.0147496 0.534059 0.838155 -0.110802 
0.893169 0.573325 0.16027 -0.683959 0.178039 -0.707462 
0.167637 0.470761 0.03303 0.484552 -0.495914 0.72061 
-0.984706 -0.32948 0.216365 0.851922 0.291026 0.435353 
-0.479572 0.178925 0.0516519 -0.384136 0.922279 0.0429005 
0.383921 0.245393 0.359842 0.014117 -0.0970326 -0.995181 
0.754107 0.609132 0.216361 0.119246 -0.164017 0.979224 
-0.314552 0.132441 -0.275548 -0.176753 0.819202 -0.545589 
-0.136692 0.170017 -0.283643 0.696953 -0.050387 0.715344 
0.919913 0.680878 0.124499 -0.725761 -0.490749 -0.482116 
0.44756 -0.179249 0.226205 -0.439278 0.697153 0.56658 
0.255175 -0.436216 -0.58216 0.429546 -0.316828 0.845642 
0.278044 -0.206084 0.197114 -0.0740254 0.988517 0.131734 
-0.0448963 -0.0752112 -0.249453 0.00533569 -0.568832 -0.822436 
0.439613 0.708127 0.0625969 0.355941 -0.922589 0.14878 
0.528321 0.476414 0.295134 -0.353628 -0.413246 -0.839151 
0.716654 0.659043 -0.115761 -0.340867 -0.345702 0.874242 
0.331929 -0.435513 0.528395 0.816545 -0.572012 0.07782 
0.275837 -0.428847 -0.592135 -0.535239 0.713046 -0.452862 
0.420119 -0.0235465 -0.291875 -0.0150654 0.528067 -0.849069 
-0.149605 0.193384 -0.207599 0.94672 -0.169045 0.274126 
0.471034 -0.104528 0.0084596 0.462592 -0.836993 0.29232 
-0.599603 -0.0897857 -0.26874 -0.0812548 0.0162738 -0.99656 
-0.174261 0.264534 -0.0754549 0.637543 -0.739338 0.216605 
0.0186039 0.209225 -0.28644 -0.179284 0.371865 -0.91081 
0.70545 0.17679 0.0404733 0.939922 -0.231873 0.250561 
0.547501 0.736535 0.058654 0.169893 -0.985369 -0.013603 
-0.945694 -0.230429 0.216848 -0.547174 0.561991 0.620296 
0.292351 -0.331839 -0.319277 -0.071138 0.85744 -0.509643 
0.436806 -0.0480018 0.335322 0.0844215 0.385966 0.918642 
0.268474 0.0975303 0.357145 0.0640874 -0.0201311 0.997741 
0.447108 -0.30839 -0.518571 -0.0385134 -0.752513 0.657451 
-0.945115 -0.458329 -0.28875 -0.0304453 0.734644 -0.677769 
0.135128 -0.433286 0.468555 -0.605868 0.579996 0.544545 
-0.161777 -0.288774 0.0204247 0.0123748 0.984739 0.173599 
0.27436 0.523681 -0.141483 -0.735841 -0.348854 -0.580379 
0.343748 0.51169 -0.211112 0.565245 0.287864 0.773067 
0.441962 0.430554 0.341409 -0.159016 -0.341214 -0.926438 
-0.897562 -0.0921405 0.0721994 -0.586916 0.776832 0.228168 
-0.919516 -0.358854 -0.184645 -0.0801142 -0.877053 0.473667 
0.331341 -0.428846 0.615576 0.108348 -0.909136 0.402159 
0.371359 0.466235 0.326647 -0.306085 0.280186 0.90984 
-0.542157 -0.283145 0.0369006 0.018906 -0.978406 0.205827 
-0.386705 -0.113739 0.295257 -0.0130943 0.277112 -0.960748 
-0.223469 -0.297668 0.0206514 0.104933 -0.96253 -0.25005 
-0.697118 0.0776402 0.0519381 -0.393235 0.832369 0.390548 
0.518757 0.430559 -0.246736 0.178008 0.183219 -0.966822 
0.512386 -0.0570985 -0.286463 -0.375363 -0.567934 0.732498 
-0.556587 -0.026872 0.319194 -0.166812 0.205327 0.964373 
0.120936 -0.43952 -0.43065 -0.124005 -0.700294 0.703001 
-0.54007 -0.185401 0.284309 -0.133384 0.558352 -0.818811 
-0.390432 0.104914 -0.265842 0.30744 -0.574782 0.758357 
0.458788 -0.0378074 0.333881 -0.0386676 0.321988 0.945954 
-0.138738 0.158829 -0.244758 0.767477 0.61709 -0.173719 
0.900182 0.52358 -0.0345028 0.654983 -0.675534 -0.338602 
-0.174006 -0.0727334 0.306087 -0.0448195 0.640121 -0.766966 
-0.0214508 -0.275726 -0.0493918 -0.0387597 -0.938886 -0.342038 
0.450291 -0.229495 0.281649 -0.221504 0.737331 0.638185 
-0.14503 0.279029 0.162558 0.845552 -0.497436 -0.193907 
0.501834 -0.259264 -0.460038 0.079851 0.707159 -0.702531 
-0.250585 -0.298099 0.0213111 0.0112411 -0.985897 -0.166974 
0.108784 -0.45312 -0.447115 -0.548038 -0.703563 0.452386 
-0.884964 -0.543185 -0.401089 0.399323 0.728786 -0.556249 
-0.595893 0.126304 0.108978 -0.403378 0.895008 0.190385 
0.553327 -0.0182599 0.266694 0.888916 -0.153529 0.431575 
-0.895575 -0.325342 0.151808 0.0074962 0.865455 0.50093 
-0.794462 -0.23342 0.271983 0.0534926 -0.170503 -0.983904 
-0.537836 -0.144646 -0.258148 -0.148777 0.338975 0.928957 
0.0305031 0.367269 0.029654 -0.462855 0.569017 -0.679695 
-0.567983 -0.245214 -0.201305 0.342372 -0.695417 -0.631804 
0.284065 -0.124837 -0.270512 0.451662 -0.135768 0.881798 
0.0516102 -0.292057 0.0294167 -0.0727116 0.996935 -0.0288827 
0.399615 -0.349223 0.421149 -0.152512 0.651845 0.742858 
-0.0346226 -0.289456 0.0387773 0.178002 -0.979847 0.0906342 
-0.94928 -0.509076 0.347843 0.292785 0.853992 0.430087 
0.855748 0.51382 0.0837848 0.0714592 -0.981186 0.179354 
0.878016 0.504477 -0.0194221 -0.079297 0.995328 0.055083 
-0.919526 -0.427093 0.27244 0.0448302 -0.664191 -0.746218 
0.938648 0.557205 0.0517954 -0.765331 0.401411 -0.503128 
0.285828 -0.100104 0.322474 0.215989 0.0376906 -0.975668 
0.435729 0.44553 0.317592 0.315039 0.297185 0.90135 
0.226824 0.540648 0.0313971 -0.313358 0.94331 -0.109417 
0.284218 -0.216308 0.250275 -0.0926821 -0.956016 -0.278288 
-0.56377 -0.00585608 0.31014 0.308949 -0.36798 -0.877007 
-0.102787 0.00862727 -0.286346 0.324635 0.226324 0.918362 
-0.273032 -0.0972669 0.298003 0.0892349 -0.567656 0.818415 
0.276292 -0.226869 0.271005 -0.236165 -0.846655 -0.476866 
-0.970792 -0.422815 0.261196 -0.160256 -0.484237 -0.860135 
-0.60331 0.126297 0.0791641 0.39862 -0.91656 -0.0319273 
-0.858311 -0.32046 -0.00956183 -0.0548686 0.992638 -0.10798 
-0.1528 0.284477 0.0899727 -0.792863 0.589202 0.155594 
-0.891761 -0.384305 0.227236 0.0684499 -0.737672 -0.67168 
0.35874 -0.403759 0.487878 0.0382317 -0.804402 -0.592853 
0.357313 -0.253795 -0.440515 0.257387 -0.826091 0.501324 
-0.569916 0.100915 0.212312 0.445561 -0.744357 -0.497401 
-0.53378 -0.205622 -0.215459 -0.351873 0.619342 0.701855 
-0.974158 -0.362123 -0.330426 -0.10038 0.854071 -0.510379 
-0.166058 0.237137 -0.144403 0.967877 -0.112342 0.224932 
-0.251051 0.269968 0.0241145 -0.37244 0.922735 -0.0992451 
0.541076 0.420846 -0.247651 0.0845082 0.0120246 -0.99635 
-0.905012 -0.454053 -0.291864 -0.57175 0.607214 -0.551719 
-0.590533 -0.140903 -0.262675 -0.00966838 0.215035 0.976558 
-0.832603 -0.425666 0.301022 -0.614571 0.727697 0.304565 
0.576389 0.740742 0.062921 0.13994 -0.986094 -0.089636 
-0.159785 0.271213 -0.199145 0.962433 0.0575355 0.265355 
-0.460518 -0.299541 -0.00441893 -0.0691439 -0.997383 -0.0211244 
-0.916888 -0.317276 0.140017 -0.196173 -0.906277 -0.374404 
0.196199 -0.338534 -0.343316 -0.508473 -0.242665 0.826177 
-0.0566585 -0.167606 -0.179432 -0.149716 0.573178 0.805638 
-0.527529 -0.270068 0.198131 -0.186111 -0.91853 0.348807 
0.213717 0.322308 -0.263661 0.248081 -0.472922 0.845459 
0.711737 0.270397 0.0890945 0.985128 -0.122784 0.120194 
-0.545535 -0.279558 -0.0884701 0.045797 -0.98363 -0.174282 
-0.535154 -0.222519 -0.198023 0.399815 -0.643592 -0.652639 
0.29016 -0.373692 0.40432 -0.477195 0.765924 0.430866 
0.30356 -0.280649 -0.442067 -0.470929 0.762114 -0.444307 
0.329908 0.392712 -0.250635 0.259376 -0.448725 0.855202 
0.442774 0.383835 0.324337 -0.130949 0.000354933 0.991389 
-0.599948 -0.305576 -0.00529069 -0.119329 0.99285 0.00297298 
-0.836463 -0.36779 -0.209426 0.280598 -0.817875 0.502339 
0.359326 -0.0787244 0.338297 0.268939 -0.0827855 -0.959593 
0.711625 0.270349 0.0190814 -0.982851 0.164028 0.0842588 
-0.857563 -0.264852 -0.234457 -0.236672 0.65474 -0.717846 
0.239598 0.494273 0.231157 0.494171 -0.408591 -0.767364 
-0.140695 0.210629 0.289178 0.352548 -0.802971 -0.48057 
0.16995 -0.390712 0.430351 0.810337 -0.244154 0.532675 
0.195913 0.54571 0.0992567 0.731402 -0.659353 -0.174083 
0.255533 -0.214041 -0.248346 -0.29648 -0.660944 0.689386 
0.464092 -0.141383 0.192943 -0.460816 0.487404 0.741678 
-0.0191282 -0.287466 0.0103266 0.0327806 -0.995755 -0.0860099 
-0.424563 0.0950603 -0.263284 -0.316484 0.448411 -0.835922 
0.86213 0.534239 0.146852 -0.0185443 -0.731138 0.681978 
-0.0570022 -0.0186077 0.314535 0.0471737 0.344833 -0.937478 
-0.820093 -0.403385 -0.290888 -0.961815 0.260169 0.0849918 
0.0556831 0.229621 -0.287667 -0.268274 0.509243 -0.817741 
-0.945082 -0.363713 -0.338596 -0.0537839 0.577478 -0.814633 
0.534665 0.55897 -0.200195 0.0976479 -0.484825 0.869143 
-0.133579 0.18857 0.330269 0.318414 -0.565401 -0.760877 
0.724819 0.422109 0.0662545 0.897359 -0.391914 0.202853 
-0.0834698 0.0476052 0.344243 -0.104279 0.339096 -0.934954 
0.42454 -0.135686 0.176779 0.273857 -0.533807 -0.800033 
0.526055 -0.167132 0.37878 -0.955686 -0.157434 -0.248756 
-0.473494 0.0737417 -0.248103 0.39804 -0.559863 0.726717 
-0.895668 -0.433777 -0.334551 0.326194 0.0501751 0.94397 
0.470097 -0.248791 0.452141 0.023752 0.711949 0.70183 
0.346413 -0.00960477 0.358297 -0.19423 -0.140078 -0.970903 
0.446383 -0.248613 0.307765 -0.170968 0.752969 0.635458 
0.368568 -0.15934 0.178729 -0.386645 0.626141 0.677091 
-0.134179 0.131775 0.360396 -0.20471 -0.338861 -0.918296 
0.411023 -0.319155 0.409071 0.194305 -0.804182 -0.561727 
0.257304 0.0521805 0.368605 0.154966 -0.0410122 -0.987068 
0.454537 -0.0219655 -0.286416 0.013318 -0.0166424 -0.999773 
-0.0568954 -0.00331943 -0.290129 -0.0471032 -0.394474 -0.917699 
0.235603 -0.272673 -0.293184 0.652925 0.278264 -0.704456 
0.38202 -0.251269 -0.445661 0.226372 -0.752221 0.618804 
0.291479 -0.404408 -0.589672 -0.38736 0.44807 -0.805721 
0.276334 0.0300637 0.366261 0.127489 0.278745 -0.951865 
-0.949695 -0.297656 0.318621 0.342207 -0.763702 -0.547406 
0.337386 -0.345631 -0.368919 -0.256112 0.839938 -0.478446 
-0.62782 0.0406426 -0.187207 -0.331487 0.724638 -0.604165 
0.636308 0.346351 0.295967 -0.663744 0.144962 -0.733778 
0.347771 0.208224 0.358456 0.0992398 -0.0342854 0.994473 
-0.986934 -0.281616 0.154611 0.976561 0.168676 0.133706 
0.24291 -0.28939 0.345601 0.866776 -0.41384 0.278275 
-0.171362 0.27127 -0.0525378 0.585803 -0.793427 0.165251 
0.1558 0.503531 0.0665855 0.626395 -0.732984 0.265261 
0.128894 -0.467507 -0.485585 -0.441183 -0.896375 -0.0432482 
0.13276 -0.424132 -0.415496 0.0196383 -0.669668 0.742401 
0.212918 0.545529 -0.0186497 0.767927 -0.639997 -0.0263167 
0.686801 0.517755 0.208231 0.591939 -0.361533 0.720349 
-0.917577 -0.368357 -0.343875 -0.129479 -0.240183 0.962054 
-0.5421 -0.121118 0.319412 -0.0438137 0.269635 -0.961965 
-0.193918 0.294374 0.0241444 -0.10828 0.993257 -0.0414242 
0.471974 0.419316 0.348355 -0.224598 0.468955 0.854188 
-0.131742 0.102696 0.372438 -0.207809 0.021487 -0.977933 
-0.946128 -0.440463 0.271727 0.0896489 -0.677899 -0.729669 
-0.652169 0.103194 0.053201 -0.586953 0.799612 0.126912 
-0.14003 -0.292887 0.0702175 0.105201 0.977373 -0.183507 
-0.0814292 -0.121148 0.257911 0.162328 -0.570903 0.80481 
-0.886779 -0.387877 -0.218608 -0.190117 0.741246 -0.643747 
0.350849 -0.348119 0.415071 0.316564 -0.782162 -0.536665 
-0.941574 -0.507917 0.398344 0.34305 0.925144 -0.162557 
-0.0312279 0.383382 0.0693151 0.344564 -0.554909 0.7572 
-0.089963 0.355717 0.0650216 0.393482 -0.656716 0.643347 
-0.631553 0.116553 0.0524971 0.356138 -0.934066 0.0262113 
0.648785 0.756807 0.0616477 -0.302076 0.949155 0.0886263 
0.317985 0.50099 -0.167649 0.581796 0.416443 0.698634 
0.696984 0.126447 0.0386846 -0.897717 0.421079 0.129605 
0.431647 0.462014 -0.222349 0.212538 -0.395995 0.893317 
-0.727624 -0.307559 -0.00902763 -0.105321 0.963082 -0.24775 
-0.970365 -0.354223 0.349559 0.25249 -0.451237 -0.85594 
-0.0670768 -0.177199 0.21616 -0.108759 0.576985 -0.809481 
0.470344 0.503111 -0.218821 0.0323925 -0.541292 0.84021 
0.495133 0.728145 0.0567638 -0.220671 0.974607 0.0380197 
-0.876117 -0.316784 0.0421726 -0.0426062 -0.997439 0.0574542 
0.427755 -0.151501 -0.168766 0.43983 -0.858303 0.26432 
0.207109 0.552597 0.0668903 -0.625387 0.761935 -0.168363 
0.31419 -0.45523 0.555304 -0.522159 0.840801 -0.142844 
-0.837687 -0.38801 -0.344941 0.608389 0.0559263 -0.791666 
0.645117 0.32758 -0.162944 -0.33065 0.702 0.630766 
0.164814 -0.47988 0.518404 -0.539799 0.592747 0.597718 
0.24283 0.594516 0.0841311 0.741335 -0.637284 0.210456 
0.368372 -0.190902 0.412038 0.367603 -0.645653 -0.669328 
0.581826 0.375431 0.328814 0.510354 0.435098 0.741774 
0.109966 0.457341 0.0601036 0.459913 -0.602873 0.651939 
-0.905068 -0.476024 -0.359061 0.554655 0.434558 -0.709589 
0.206002 0.550619 0.041011 -0.481047 0.831622 -0.277486 
-0.633977 0.0743822 -0.130413 -0.568782 0.741774 -0.35533 
-0.776318 -0.273556 -0.251606 -0.0369005 0.28503 0.957808 
0.0815355 0.404869 0.0260771 0.402541 -0.667991 0.625899 
0.516995 -0.216399 0.418479 0.628726 0.417788 0.655863 
-0.44068 0.194668 0.0487849 -0.346887 0.935922 0.0609913 
0.176933 -0.473966 0.538823 -0.511514 0.850026 0.125734 
-0.900691 -0.454676 -0.348088 0.340747 -0.696373 0.631629 
-0.768522 -0.23366 0.272138 0.124842 0.0176711 0.992019 
0.831557 0.503638 0.0299597 0.349869 -0.919356 -0.179933 
0.755257 0.708294 -0.0688778 0.178951 -0.802692 0.568913 
0.465376 -0.287768 -0.347152 -0.228157 0.789253 -0.570109 
0.831428 0.527035 -0.0396028 -0.0428665 -0.965324 -0.257513 
0.343627 0.0302843 0.3356 -0.386989 -0.0763562 -0.918918 
-0.976363 -0.378628 0.358423 0.236629 -0.403786 -0.883722 
-0.0542331 0.322555 0.0303328 0.104795 -0.903641 0.415272 
0.397843 -0.348115 -0.573535 0.221417 0.608383 -0.762132 
-0.342999 -0.296983 0.0119738 0.100989 -0.979937 -0.17183 
-0.995179 -0.302904 -0.149871 -0.471106 -0.87181 -0.134189 
-0.834317 -0.445276 -0.319033 0.732777 -0.558453 0.388803 
0.63363 0.047427 0.00988774 -0.410352 0.316152 0.855371 
0.721051 0.774026 0.0632429 0.0292325 0.999572 0.000839911 
-0.0838915 0.176555 -0.284267 0.120318 0.475247 -0.871587 
-0.0458826 -0.249988 0.136757 0.187465 -0.789694 0.584158 
-0.904631 -0.273984 -0.22262 -0.199106 0.424264 -0.883378 
-0.0291525 -0.278016 0.0840015 0.111296 -0.931785 0.345527 
0.330636 -0.00366286 -0.290757 0.0734716 0.0393657 -0.99652 
0.356142 -0.193055 -0.182536 0.341139 -0.881705 0.325916 
0.674619 0.331209 0.251064 0.711304 -0.407258 0.572876 
-0.11766 0.0405989 0.342996 0.113253 -0.389375 0.91409 
-0.169183 0.299624 0.025154 0.256527 -0.966483 0.0102272 
0.278658 0.535742 -0.167347 -0.74315 -0.290552 -0.60275 
-0.389814 0.213321 0.0422024 -0.362591 0.931194 0.037498 
-0.881972 -0.527343 0.384832 0.893715 -0.239173 0.379565 
0.275041 0.152285 0.368205 0.206726 -0.11434 0.971695 
-0.813666 -0.364057 -0.218448 -0.545618 0.788985 -0.282494 
0.284156 -0.215456 0.00684255 0.464851 -0.882348 0.0733111 
0.743569 0.767325 0.0581169 0.147558 0.987516 -0.0551155 
-0.869921 -0.330641 -0.291466 -0.0477785 -0.571063 0.819515 
0.175908 0.0742563 0.359418 0.110052 -0.0762763 -0.990995 
-0.631662 0.117368 -0.000959612 0.496663 -0.867326 0.032728 
0.0540268 0.386462 0.0281376 -0.443489 0.569687 -0.691936 
0.559948 0.459958 0.265516 0.410149 0.407568 0.815884 
0.865628 0.522652 -0.0690152 -0.0943968 -0.96624 -0.23973 
-0.360772 0.22545 0.0386148 0.346999 -0.908639 -0.23231 
-0.814277 -0.388174 -0.271426 -0.861454 0.46016 -0.214827 
-0.880889 -0.241848 0.255953 0.201806 -0.844339 -0.496353 
0.838392 0.649627 0.207912 0.443121 0.207266 0.872173 
0.647466 0.493471 0.233219 -0.500159 0.0982564 -0.860341 
0.261028 0.352001 -0.258211 -0.34538 0.702908 -0.621798 
-0.564924 0.0885546 0.232452 -0.422199 0.718465 0.552772 
-0.982666 -0.294283 0.0433636 0.528055 0.841359 -0.115207 
0.10939 0.420569 0.0278874 -0.438478 0.673275 -0.595347 
-0.800007 -0.358015 0.236377 -0.620907 0.6905 0.371059 
0.55367 0.568947 -0.188778 0.0125419 -0.528163 0.849051 
0.706101 0.274226 -0.0378185 -0.922253 0.222731 0.315976 
-0.52285 0.057614 -0.236061 -0.368193 0.581218 -0.725685 
0.394533 -0.091457 0.365759 0.140212 -0.447555 -0.883196 
0.403338 0.432414 -0.230283 0.123859 0.064212 -0.99022 
-0.0935679 -0.0381617 -0.266553 -0.0954505 -0.450215 -0.887804 
0.808278 0.495588 0.0383243 0.455176 -0.8659 0.207444 
0.335437 -0.184808 0.01102 0.51719 -0.847953 0.116147 
0.706428 0.576034 0.239184 -0.571056 0.360346 -0.737595 
-1.02078 -0.418765 0.310456 -0.942412 -0.102415 -0.318389 
0.698034 0.281085 -0.0656733 0.924047 -0.0854563 -0.372606 
0.524546 -0.111364 0.337422 0.819875 0.1539 0.551471 
0.213089 0.520891 0.0324917 -0.813045 0.504236 -0.29104 
0.559112 -0.0564573 -0.238348 -0.890892 -0.437769 0.12112 
-0.0352802 -0.233955 -0.122017 -0.108236 0.771265 0.627244 
0.188347 -0.258399 -4.84112e-05 -0.290721 0.92925 0.227983 
-0.906878 -0.52925 -0.412871 -0.313942 -0.637183 0.703874 
0.892181 0.652884 -0.0743271 0.441606 0.423051 -0.791209 
-0.824342 -0.340303 0.185954 -0.175578 0.866324 0.467606 
0.509211 -0.117326 -0.161233 -0.50073 0.709104 -0.496428 
0.525423 -0.130726 0.352309 0.894075 0.282506 0.347592 
0.895028 0.544918 -0.0091445 -0.499738 0.866069 0.0136596 
-0.998912 -0.277183 0.0482698 -0.713167 -0.682559 0.159705 
-0.54121 -0.165887 0.299374 -0.0746851 0.500475 -0.862524 
-0.0786189 0.0750018 -0.315622 0.495225 0.217206 0.841174 
0.352581 -0.243288 0.45822 -0.271286 0.526839 0.805509 
-0.61719 -0.0336618 -0.252043 -0.314257 0.370278 -0.874149 
0.265009 -0.320409 -0.48275 -0.760365 0.646951 0.0574426 
0.41796 -0.377775 0.605237 0.68129 -0.126351 0.721027 
-0.528378 0.15876 0.0502246 -0.338661 0.940588 0.0245706 
0.244971 -0.254321 -0.280334 -0.72106 -0.27592 0.635563 
0.0202841 -0.292565 0.0321896 -0.0386416 -0.996208 0.0779469 
-0.00165259 -0.00891129 0.332391 -0.111635 -0.472598 0.874179 
-0.329989 -0.105432 0.299069 -0.0192472 0.384786 -0.922805 
-0.624572 0.0187873 -0.21324 -0.41825 0.612871 -0.670415 
0.899424 0.551359 0.0665151 -0.899746 0.283578 -0.331724 
-0.89026 -0.465493 -0.307259 0.100018 0.894443 -0.435853 
0.525618 -0.283719 -0.359522 0.392367 -0.882174 0.260415 
0.845324 0.533717 0.126457 -0.0427881 0.956191 -0.2896 
0.224491 -0.19166 -0.224431 -0.0130253 -0.442806 0.896523 
0.326693 -0.359755 0.412461 0.391 -0.852733 -0.34636 
0.352815 -0.426438 0.637363 0.405685 -0.883638 0.233675 
-0.132965 0.124136 -0.266107 0.415485 -0.101415 0.903929 
0.442319 -0.293257 -0.343603 -0.295122 0.726458 -0.620614 
-0.357565 -0.110914 0.296324 -0.00376168 -0.352084 0.935961 
0.200879 0.49763 0.0337499 -0.755971 0.542469 -0.366381 
0.303824 0.462954 0.274121 -0.542054 0.202667 0.815539 
-1.00776 -0.317499 -0.204209 -0.316667 0.914505 -0.251797 
-0.00682796 0.40121 0.0696287 -0.40943 0.588309 -0.697323 
0.261252 -0.110944 0.317805 -0.242047 -0.0433892 0.969294 
0.357506 -0.0354642 -0.292633 -0.0222902 0.26171 -0.964889 
0.494613 -0.0911595 0.0116518 -0.449011 0.850898 -0.272692 
-0.515897 -0.297463 -0.0087162 0.140255 0.990112 -0.00246912 
0.402508 -0.145497 0.178811 0.192381 -0.639046 -0.744721 
0.367954 0.308987 0.338887 0.187911 -0.231884 -0.954421 
-0.864324 -0.459347 0.356928 0.935036 -0.182854 0.303764 
0.618638 0.0270036 0.0100637 0.606337 -0.333051 0.722103 
-0.310001 -0.296437 0.017841 0.0221746 -0.994461 -0.102742 
0.47715 0.455534 -0.255344 -0.112822 0.348354 -0.930549 
-0.142713 0.239087 0.253333 -0.582955 0.685579 0.436056 
-1.00086 -0.178044 0.062535 0.677496 -0.58589 -0.44467 
0.355677 -0.211122 -0.379206 -0.266154 0.733987 -0.62484 
-0.278786 -0.297509 0.0237983 -0.00270622 -0.994992 -0.0999197 
0.80658 0.514474 0.155387 -0.631928 0.648405 -0.424545 
-0.944913 -0.304159 0.134075 0.446967 0.847016 0.287725 
-0.856307 -0.240288 0.263699 0.137221 -0.897149 -0.419874 
-0.127265 0.207335 -0.283936 0.0344205 0.485853 -0.873363 
0.265583 -0.383676 0.391686 -0.399083 0.642335 0.654323 
0.175586 -0.368476 -0.367986 0.588559 0.292767 -0.753582 
-0.247572 0.146117 -0.274003 0.19629 -0.784192 0.588654 
0.236733 -0.101335 -0.260499 0.267206 0.333179 0.904208 
-0.804961 -0.36514 -0.253995 -0.895763 0.444436 0.00926509 
0.755311 0.580282 -0.117702 -0.03111 0.439999 0.897459 
-0.863331 -0.310867 -0.279554 0.030637 -0.651843 0.757735 
0.374891 -0.18025 -0.174917 0.342208 -0.81843 0.461591 
0.211481 -0.314337 -0.325481 -0.591651 -0.208473 0.778773 
0.0756392 0.245316 -0.286113 -0.0999056 0.539743 -0.835881 
0.379433 -0.360462 -0.587081 0.196743 0.459544 -0.86609 
0.777007 0.761752 0.117219 -0.30311 -0.902435 -0.306163 
-0.680029 -0.303864 -0.00362983 0.0122212 -0.99581 0.0906252 
-0.549612 -0.0536885 0.324801 -0.0866632 0.105032 0.990685 
0.591333 -0.00267407 0.0130453 0.695197 -0.340762 0.632916 
0.944181 0.569011 0.0294505 -0.866102 0.33946 0.366926 
0.447709 0.46791 -0.243033 0.267982 -0.464832 0.84387 
0.769352 0.746225 0.135431 -0.149826 -0.772687 -0.616852 
0.364309 0.225842 0.356034 -0.256912 0.187059 0.948159 
-0.295933 0.251967 0.0302402 -0.385678 0.884458 -0.262653 
0.0282099 0.428748 0.0732616 0.436074 -0.68018 0.589232 
-0.0421382 -0.09414 -0.234706 -0.0246851 -0.586848 -0.809321 
0.487423 -0.128314 -0.164259 0.317124 -0.795261 0.516714 
0.302427 0.0949678 -0.282473 0.358639 0.163919 -0.918971 
-0.158031 0.281514 0.0416937 -0.333583 0.906833 0.257637 
-0.983466 -0.424513 0.373434 0.32654 -0.348826 -0.87846 
-0.991678 -0.446962 0.384137 0.307526 -0.0590346 -0.949707 
0.66772 0.504276 0.216461 0.439179 -0.084235 0.894442 
-0.655937 -0.30444 -0.00342114 0.00388979 0.999842 -0.0173227 
-0.048047 -0.0552474 -0.262572 0.0366858 0.523971 0.850946 
-0.639678 0.0964624 -0.0419387 0.381539 -0.870619 0.310564 
-0.150874 0.283332 0.114056 -0.682477 0.724431 0.0970818 
0.526085 0.398492 0.348951 -0.277562 -0.423715 -0.862221 
-0.93488 -0.475856 0.315049 0.0843552 -0.692863 -0.716118 
-0.85155 -0.0542505 0.0664479 0.586749 -0.739759 -0.329367 
-0.0433411 -0.213701 -0.145542 -0.0696154 0.673136 0.736234 
-0.0346996 -0.26762 0.106962 0.201537 -0.84002 0.503736 
0.859641 0.531112 -0.0257145 -0.0639743 -0.997914 -0.00868918 
0.553675 -0.192725 -0.361451 0.704952 0.423458 -0.568969 
0.241039 0.538395 -0.0935263 0.895094 -0.110707 0.431915 
0.442905 -0.266056 0.323818 0.120702 -0.707881 -0.695942 
0.702515 0.362669 0.0641621 0.981477 -0.190983 -0.0151417 
-0.703928 -0.30452 -0.00764384 -0.0952382 0.98904 0.112824 
0.895171 0.536679 0.142681 0.580147 -0.329222 0.745012 
0.936461 0.698318 0.0818922 -0.749296 -0.617707 -0.238733 
-0.605588 0.105608 0.165094 0.538177 -0.773175 -0.335509 
-0.969521 -0.289783 0.138502 0.715079 0.649282 0.259026 
0.273105 0.573988 0.0262079 0.567338 -0.68854 0.451709 
0.766659 0.761514 0.054649 -0.118228 -0.992876 -0.0148346 
0.636551 0.611562 -0.164144 -0.28002 -0.207653 0.937267 
0.353525 -0.325568 -0.348826 -0.331969 0.86571 -0.374625 
-0.805595 -0.0144098 0.0671711 0.609254 -0.788382 0.0852182 
-0.147207 0.282311 0.13792 0.776095 -0.608584 -0.165232 
0.192534 -0.464222 0.557305 -0.490539 0.867604 0.0814537 
0.254597 -0.207353 0.205999 0.0530399 0.997226 0.0522161 
0.359612 -0.318004 -0.325554 0.383928 -0.802496 0.456726 
0.521462 -0.0853797 0.203618 0.681672 -0.64202 -0.350904 
-0.542876 -0.270893 -0.121872 -0.257223 0.936416 0.238665 
0.158401 0.304368 -0.246562 0.275564 -0.606328 0.745943 
-1.0366 -0.567242 0.419421 -0.451458 0.523827 0.722351 
0.359592 -0.0316547 0.356406 -0.14948 0.0319963 -0.988247 
-0.535389 -0.210452 0.268141 -0.100477 0.599038 -0.794392 
0.355074 0.478414 0.310656 -0.520304 0.203351 0.829417 
0.515441 -0.242398 0.439542 0.75279 0.280917 0.595309 
-0.861473 -0.465371 0.309177 0.546796 -0.705815 -0.450377 
0.274326 0.615003 0.0737309 0.615973 -0.68153 0.395086 
-0.928988 -0.280426 -0.22063 -0.10716 0.164546 -0.980531 
0.820517 0.748058 0.0522981 0.458903 0.869119 0.184499 
0.448528 -0.20163 0.250986 0.337452 -0.677728 -0.653308 
-0.429307 -0.298122 1.77298e-05 -0.0262903 -0.999451 0.020161 
-0.158163 0.217214 -0.176467 -0.959289 0.0616355 -0.275619 
0.415212 0.459579 -0.24187 -0.0933437 0.159475 -0.982779 
0.519608 0.730155 0.0555414 0.185992 -0.961134 0.20403 
-0.868486 -0.470534 -0.317367 -0.342631 0.640212 -0.687555 
-0.57558 0.110652 0.190436 -0.458989 0.776277 0.432114 
0.710001 0.271355 0.115329 0.937227 -0.319123 0.140589 
-0.789968 -0.342257 -0.234876 0.734108 -0.579394 -0.354101 
-1.00959 -0.36419 -0.323949 -0.26217 0.885622 -0.383328 
0.412464 -0.256736 -0.27447 0.192821 -0.758695 0.622256 
0.349719 0.405253 -0.245365 0.0805002 0.109268 -0.990747 
0.485922 -0.289585 0.389214 -0.417723 0.702938 0.575661 
0.509227 -0.233419 -0.433183 0.291037 0.653012 -0.699195 
-0.584694 0.139178 0.055654 -0.466705 0.88439 0.0064047 
-0.122908 0.162687 0.344917 -0.0571034 0.436307 0.897984 
0.818231 0.636118 0.219828 0.203269 0.0340354 0.978531 
-0.778663 0.00128578 0.0666727 -0.556311 0.830368 -0.0317435 
-0.784572 -0.34126 0.228627 -0.626071 0.754857 0.195514 
0.583656 0.470636 0.261738 0.403025 0.0916273 0.910591 
0.91199 0.57099 0.129923 -0.872068 0.179617 -0.455231 
-0.573509 -0.220952 -0.219942 -0.307664 0.568084 0.763297 
-0.861447 -0.485667 0.357449 -0.934285 0.356509 -0.00359546 
0.610141 0.596091 -0.170958 0.0877856 0.395682 -0.914182 
0.282898 0.129806 -0.286982 -0.647406 -0.165325 0.743998 
0.809992 0.536464 -0.0571591 -0.00881891 -0.929286 -0.369255 
-0.023878 -0.28477 0.0597629 0.0921676 -0.965437 0.243797 
