ply
format ascii 1.0
comment VCGLIB generated
element vertex 776
property float x
property float y
property float z
property float nx
property float ny
property float nz
element face 0
property list uchar int vertex_indices
end_header
-0.0485351 0.370758 0.05871 -0.6069934 -0.256839 0.752059 
-0.370796 0.0988848 -0.00333866 0.8817953 0.4295872 0.1946589 
0.450184 -0.119371 0.38718 -0.712126 -0.4860141 -0.5066229 
0.455818 0.170565 0.0645228 -0.9498569 -0.3125896 -0.007729776 
0.0588131 0.368384 -0.116828 -0.07913741 -0.5077025 0.8578901 
0.300638 -0.617226 0.251295 -0.1945089 -0.1611691 -0.9675695 
0.4327 0.138601 0.182744 -0.9140714 0.3899364 -0.111459 
0.208125 0.135045 0.028443 -0.8091667 0.4555809 0.3710732 
0.250812 -1.01834 -0.403916 -0.8218911 0.03603382 0.5685037 
-0.403872 0.182612 0.029345 0.7799569 0.6236046 0.05276839 
-0.464525 -0.0541152 0.0591397 0.3253207 0.2655746 -0.9075443 
0.381814 -0.217079 0.396008 0.3465538 0.4279154 -0.8347388 
0.336498 0.21353 -0.0775563 0.0780324 -0.9531475 0.2922684 
0.141632 0.460683 0.0373814 -0.8150511 -0.06941743 -0.5752156 
0.477544 -0.307188 0.356788 0.09317812 0.496733 -0.8628871 
-0.119853 0.468104 -0.0543039 0.9360104 -0.1282044 0.3277929 
-0.073084 0.179187 -0.165696 0.9652442 0.2122924 -0.1524322 
0.420926 -0.0324567 0.279611 -0.4600269 -0.7799906 -0.4242521 
0.207315 0.0285731 -0.218732 -0.8842498 -0.2639445 0.3852734 
-0.28911 0.303606 -0.0635035 0.8618153 0.1315597 -0.4898637 
0.105052 -0.157539 -0.0591376 -0.6102521 0.7406564 0.2811056 
-0.150594 -1.00917 0.0028464 0.8304156 0.5510913 0.08190478 
0.0378237 0.0380107 -0.259637 0.8215384 -0.567197 0.05798412 
0.474669 -0.759144 -0.0593664 -0.848062 0.4712012 0.2424051 
0.0282507 -0.658752 0.0547963 -0.9049898 0.2624312 -0.3348481 
-0.333208 -1.1263 -0.322068 0.012717 0.9527076 0.3036225 
0.0173514 -0.602117 -0.442835 0.09608383 -0.05598567 0.9937975 
0.592444 -0.516532 0.113198 -0.8737056 0.001285776 0.4864533 
-0.218126 0.576535 0.0487313 -0.347129 -0.237343 0.9072871 
0.3604 -0.411073 0.214673 -0.7503504 0.433504 0.4990476 
-0.48821 -0.0596254 0.034123 0.3100618 0.2422478 -0.9193355 
0.222846 0.129934 -0.0816931 -0.8575606 -0.3028154 0.4158037 
0.414238 -0.184959 -0.0566173 0.2733915 0.6803867 0.6799493 
0.381629 0.0215035 0.323111 0.3921777 -0.7219514 -0.5700726 
-0.141824 -0.323476 -0.369828 0.7103827 0.03246884 0.7030663 
0.215191 0.0669964 -0.0401007 -0.6173933 0.4405859 0.6516975 
-0.163188 0.660072 -0.0399024 -0.3704884 -0.4573783 0.8084203 
0.357905 -0.843369 0.129108 -0.2527273 0.7866644 0.5632833 
0.303202 0.142986 0.3619 0.5177413 -0.4243283 -0.7428926 
0.0611265 0.232941 0.0680031 0.07371992 0.190118 -0.9789895 
0.0651256 0.420107 0.10274 -0.263905 0.1340787 -0.9551843 
0.511609 -0.626642 0.179163 -0.6282644 0.4083602 -0.6622128 
-0.282481 -0.803443 0.0672052 0.6229007 0.1636452 -0.7649935 
0.237902 0.205673 0.27518 -0.8759546 0.3218762 0.3593037 
0.213746 -0.61175 -0.418615 -0.2850794 0.04153994 0.9576034 
0.119051 0.0501797 -0.267321 -0.9653957 0.2221071 0.1366729 
-0.179069 0.23563 0.00420054 0.1302033 0.08368448 -0.9879494 
0.0258294 0.506493 0.129255 -0.4608217 0.0908182 -0.8828337 
0.0875243 -0.80496 -0.451312 -0.4917651 -0.1310863 0.8608039 
0.248315 -0.892996 -0.398937 -0.6178111 0.02313023 0.7859862 
-0.0760889 -0.492895 -0.417318 0.340688 -0.01330365 0.9400823 
-0.211881 0.395387 -0.145153 0.4506205 -0.2906616 0.8440717 
-0.0684014 0.115198 -0.190077 0.9688917 -0.1527688 0.1947064 
0.416229 -0.239876 0.390518 0.230943 0.4804176 -0.8460876 
-0.474005 0.131143 -0.047367 0.2097608 -0.3668746 0.9063132 
-0.301155 0.473702 -0.00832187 0.8534058 0.1232311 -0.5064706 
0.344507 -0.0283016 0.0171574 -0.4390754 0.7643416 -0.4722232 
-0.487351 0.274779 0.00127679 0.1203022 -0.4454023 0.8872115 
-0.32543 -0.845629 -0.00921143 0.8436439 0.1987458 -0.4987636 
0.0118941 0.629636 0.167486 -0.5989341 -0.02087515 -0.8005262 
-0.156875 -0.288007 0.00839557 -0.4404095 0.8921431 -0.1005989 
-0.0573947 0.0302866 -0.201935 0.8849339 -0.465494 -0.01439329 
-0.328487 -0.922375 -0.329415 0.5014827 0.8599105 -0.09523045 
0.460646 0.151808 -0.00913469 -0.920594 -0.3615019 0.1477262 
0.116327 -1.03841 -0.0187161 0.1178773 0.5247093 -0.8430808 
-0.042832 -1.03113 -0.0227379 -0.3595799 0.07502036 -0.9300936 
-0.366609 -0.739883 -0.194791 0.8285728 0.5046469 0.2424843 
0.30717 -0.0983133 0.0041493 -0.06465559 0.01411185 -0.9978078 
-0.0933918 -1.13262 -0.31171 -1.052405e-05 0.9505887 0.3104531 
0.283759 -0.987669 -0.356868 -0.9095203 0.05933013 0.4114035 
0.214441 0.176857 0.21703 -0.9205716 0.2506046 0.2995754 
0.326966 0.255415 0.163916 0.2236492 -0.9650025 -0.1369352 
0.188177 0.181056 -0.100448 -0.9149458 -0.2340453 0.3287811 
0.309495 -0.18166 -0.0186085 0.06622791 0.3191185 0.9453979 
0.331289 -0.165374 0.403595 0.4964151 0.3689811 -0.785764 
-0.361315 -0.943643 -0.229895 0.716446 0.612686 -0.3336482 
0.0883281 -1.1262 -0.337047 -0.2819924 0.8600185 0.4252628 
-0.190573 0.490191 -0.120325 0.5911182 -0.2981612 0.7494527 
-0.369133 -0.649749 -0.000204035 0.8477009 0.1677566 -0.5032504 
0.549071 -0.161813 0.334051 -0.8845564 -0.2417537 -0.3988923 
-0.0801098 0.58682 0.105785 -0.1635199 -0.0006075531 -0.9865398 
0.360331 0.270066 0.0110362 0.0783323 -0.9904307 0.1136264 
-0.129509 -0.460178 0.0197854 0.4911132 0.02144511 0.8708317 
0.329943 0.137884 0.360457 0.517655 -0.438862 -0.7344613 
-0.216191 0.111575 -0.216958 0.6723758 -0.183021 0.7172267 
0.443772 0.161868 0.119388 -0.9943802 0.06594284 -0.08282363 
-0.201189 0.259533 0.0102868 0.116481 0.08308703 -0.9897114 
-0.144055 -0.626292 -0.408511 0.2562706 0.1690071 0.9517154 
0.466258 -0.781458 -0.0104391 -0.7244496 0.6083014 0.3242561 
0.414049 0.0778176 0.270922 -0.7105691 0.6606674 0.2420952 
0.516235 -0.43258 0.2832 -0.1704157 0.4420732 -0.8806417 
-0.488684 0.221942 -0.0214837 0.232682 -0.377825 0.8961626 
-0.556045 0.170081 0.0928283 0.7951887 0.1980053 -0.5731221 
0.198907 -0.340343 -0.423896 -0.483096 -0.1409516 0.8641475 
-0.108293 -0.564548 -0.417401 0.1923392 -0.00707064 0.981303 
0.393307 -0.574485 -0.338385 -0.4629794 0.4329515 0.773436 
0.425313 -0.317619 0.0497379 0.04940493 0.4186797 -0.9067891 
-0.185601 0.455908 -0.126141 0.566983 -0.3013889 0.7666126 
-0.448454 0.0517872 0.0927919 -0.0212327 0.05536463 -0.9982404 
0.194747 0.089965 -0.162717 -0.8342696 -0.3241033 0.4460395 
-0.098738 0.689596 0.114504 -0.3893676 -0.1925814 -0.9007249 
-0.0714792 -1.18946 -0.131324 0.03670687 0.8379284 0.5445443 
0.462773 -0.101152 0.18962 -0.526221 -0.3427987 -0.7781904 
-0.435989 0.00901893 0.0831509 0.1554764 0.1820559 -0.9709185 
-0.218617 -0.317391 0.0424578 -0.4313406 0.8984267 -0.08230826 
-0.0794568 -0.692412 0.0600113 0.3001458 -0.1092629 -0.947615 
0.179368 -0.954426 -0.4509 -0.6303794 0.1194804 0.7670374 
0.0866181 -0.930624 -0.475987 -0.4581035 0.3215979 0.8286833 
0.309827 -1.00126 -0.307949 -0.9516186 0.0665545 0.2999879 
0.329808 -0.594309 0.258116 -0.3886136 0.1102944 -0.9147758 
0.300973 -0.152644 0.297911 -0.8818701 -0.2318253 -0.4105633 
-0.290619 -0.347526 0.0590239 -0.4291419 0.8999661 -0.07679948 
0.550849 -0.401896 0.0428184 -0.692565 -0.2054281 0.6914861 
-0.403323 -0.353917 -0.00561841 0.7080816 0.1388733 -0.69234 
-0.334016 -0.709556 -0.266014 0.639795 0.55956 0.5268348 
0.102601 -0.830908 0.145839 0.1543751 0.3416137 -0.9270752 
-0.342312 -0.792758 -0.0126658 0.8580456 0.2075619 -0.4697613 
-0.250361 -0.667638 -0.346638 0.4451676 0.4837054 0.7535614 
-0.274374 0.121021 -0.0967846 0.7883276 0.1205449 -0.6033311 
-0.0296236 0.338481 -0.0887774 0.3045798 -0.4516714 0.8385845 
-0.220763 0.302859 -0.159766 0.4244124 -0.2391979 0.8733032 
0.474982 -0.729111 -0.117141 -0.8581177 0.454632 0.2386287 
0.310836 0.0628309 0.195272 -0.7751337 0.5907117 0.224115 
-0.0488728 0.337908 0.0404538 -0.6795586 -0.2570901 0.6870988 
-0.254082 0.59809 -0.0920413 -0.08203776 -0.4438691 0.8923284 
-0.243071 -0.0568854 -0.208107 0.9582756 -0.02057632 -0.2851045 
-0.518192 0.0328787 0.0531776 0.4174788 0.2303328 -0.8790098 
0.382646 -0.899589 -0.150371 -0.9491909 0.2909116 0.1200299 
-0.373082 -0.161336 0.0577395 0.2535308 0.2151998 0.943086 
0.590627 -0.44812 0.166677 -0.8075817 -0.08130239 0.5841247 
-0.474043 0.105567 -0.0545423 0.2222369 -0.3608773 0.9057474 
0.0534487 -0.555206 0.0193431 -0.9316442 0.3523005 0.08901384 
0.427018 -0.249855 -0.0176047 0.2407568 0.9587052 -0.151395 
-0.212892 0.436924 0.0287743 0.294393 0.1476671 -0.9442071 
-0.0627271 0.151647 -0.0902463 0.9735613 0.227327 0.02237939 
0.0136934 -1.12467 -0.339876 -0.1407261 0.9165158 0.3744264 
-0.292659 -0.158597 0.0118208 0.5621012 0.2473513 0.7892145 
0.191043 -0.320611 -0.0114385 -0.2036648 0.14086 0.9688545 
-0.295028 -0.0386058 -0.0385356 0.9389847 0.2287361 0.2568805 
-0.359909 -1.12585 -0.322435 0.01278008 0.952715 0.3035963 
0.0100117 0.0418186 -0.242515 0.8436123 -0.5276558 0.09948679 
-0.221599 0.142855 -0.198352 0.6364661 -0.180658 0.749849 
0.59506 -0.4964 0.13029 -0.8437343 -0.03338411 0.535722 
0.205913 -0.432971 -0.424928 -0.39998 -0.04487817 0.9154245 
0.0630377 0.736299 0.0592624 -0.8491154 -0.4128355 -0.3294997 
0.431693 0.173732 0.215574 -0.9206328 0.3445015 -0.1837224 
-0.38382 -0.133348 0.0638211 0.4597662 0.3487742 0.8166833 
0.209672 -0.226873 -0.402708 -0.5064524 -0.2523145 0.8245261 
0.379479 -0.278772 0.261778 -0.9880759 -0.1298992 0.08265715 
-0.414849 -0.0503327 0.0737476 0.4308775 0.3652804 -0.8251756 
-0.36438 -0.683803 -0.00456307 0.8462062 0.1689691 -0.505356 
-0.126385 -0.00201994 -0.0584021 0.08360789 -0.6173075 0.7822666 
-0.158533 -0.912314 -0.471086 0.01442824 0.9316804 0.3629924 
0.348078 -0.569169 0.260695 -0.4327282 0.1854083 -0.8822529 
0.223666 0.00856593 -0.179133 -0.8752457 -0.2629432 0.4059629 
-0.0763234 -1.12685 -0.331069 -1.052405e-05 0.9505887 0.3104531 
-0.274016 0.207767 -0.0507234 0.7411343 0.1230503 -0.6599838 
-0.502226 -0.0220564 0.0395532 0.3535425 0.2411846 -0.9037907 
-0.00942617 -1.05706 -0.0273514 -0.2412242 0.18463 -0.9527448 
-0.247736 -0.759047 0.0912101 0.4661628 0.1501152 -0.8718703 
-0.346758 -0.719663 -0.244658 0.7077796 0.5537021 0.438705 
0.178381 0.268435 -0.0500683 -0.9841863 -0.1134623 -0.1360281 
0.172134 0.322361 -0.0210749 -0.9128006 -0.2117011 -0.3492529 
0.442229 -0.177608 0.14391 -0.442971 0.1738739 -0.8795139 
0.0470557 0.21343 -0.184081 0.1208731 0.3881993 0.9136142 
0.0653937 0.0432598 -0.267131 -0.8590205 0.5118396 -0.01019764 
0.211318 0.0476338 -0.0594118 -0.5865467 0.4352391 0.6830299 
-0.481697 0.149474 0.111368 0.3589869 0.1834358 0.9151391 
-0.354573 -0.736803 -0.223084 0.7718999 0.5346598 0.3439613 
-0.207331 0.424833 -0.135509 0.5401132 -0.299759 0.7863983 
0.400939 -0.296435 0.308538 -0.7831852 -0.371816 0.4983709 
0.463309 0.114919 -0.0523913 -0.8806028 -0.355592 0.313198 
0.108793 -0.80802 0.157645 0.2344085 0.1932078 -0.9527453 
-0.310909 0.614563 -0.0434636 0.4325228 -0.3457936 0.8326769 
0.346965 0.162481 -0.120238 -0.08393357 -0.8894893 0.4491815 
0.0924043 0.642718 0.101917 -0.7975025 -0.1528845 -0.5836231 
-0.28269 0.600045 -0.0699203 0.2199923 -0.4005525 0.8894724 
-0.420115 -0.249847 -0.00575224 0.6455358 0.1366516 -0.7514053 
0.444871 -0.31014 0.0685187 0.0502222 0.4052175 -0.9128398 
0.178158 -1.02918 -0.0173202 0.3153203 0.6208159 -0.717747 
-0.185782 0.0769716 -0.0106737 -0.1161716 -0.2649163 0.9572479 
-0.221743 -0.578571 0.0884557 -0.2162183 0.1815796 -0.9593114 
0.435688 -0.182994 -0.0764788 0.3301286 0.7088947 0.6232845 
-0.097634 0.726533 0.124835 -0.5358074 -0.2889639 -0.7933538 
0.391283 -0.0913254 0.424163 -0.6993088 -0.4955895 -0.5151294 
-0.0304852 -0.371089 -0.0500959 -0.1769288 0.9314911 0.317837 
0.211974 -0.562943 -0.42209 -0.2511043 0.04120155 0.9670827 
-0.0672438 0.535025 0.100739 -0.07228708 0.1035097 -0.9919981 
0.130348 -0.563235 -0.439169 0.019194 -0.03278974 0.9992779 
0.406076 -0.0326449 -0.00613257 -0.4986617 0.5830789 -0.6413701 
-0.36137 -1.07312 -0.136336 0.809091 0.2391532 -0.5368217 
0.159401 -0.757414 0.195728 -0.3348201 0.9048845 0.2628299 
0.578721 -0.196144 0.19771 -0.6082118 -0.3103585 0.7305862 
-0.464127 -0.0357238 -0.078679 0.5762361 -0.1771204 0.7978598 
0.314019 0.213481 0.308238 0.5436651 -0.6501063 -0.5308392 
0.366504 -0.207713 -0.0347246 0.1906196 0.5261407 0.8287581 
0.116098 -0.855075 -0.448034 -0.5291728 0.004471555 0.8485023 
0.368413 -0.377489 0.208124 -0.7512426 0.4045016 0.5215486 
0.594856 -0.337507 0.239094 -0.860525 0.09572106 -0.5003342 
-0.219763 -1.12827 -0.32085 0.01098016 0.9524343 0.3045461 
-0.268961 -0.133284 -0.0107322 0.8709337 0.288084 0.3980981 
0.0545769 0.552052 -0.0369245 -0.2023168 -0.4306309 0.8795595 
0.201018 -0.371267 -0.425391 -0.4620496 -0.1064369 0.8804439 
0.0685116 -0.773664 -0.453798 -0.447362 -0.1680461 0.8784235 
0.341009 -0.213212 -0.0229441 0.1034657 0.3727424 0.9221486 
0.168455 0.347935 -0.00910172 -0.8997096 -0.2048924 -0.3854111 
-0.165212 -0.503124 0.0525219 -0.4534997 0.1138278 -0.8839577 
0.527439 -0.278017 0.364106 -0.1393187 0.4610999 -0.8763431 
0.604721 -0.230041 0.286988 -0.9385664 -0.02232287 -0.3443759 
-0.0848522 -1.14762 -0.264455 0.008805337 0.9254447 0.3787804 
-0.318707 0.585097 -0.0198583 0.5408235 -0.3184494 0.7785241 
0.224991 0.00593261 -0.207406 -0.8750189 -0.2780886 0.3962432 
0.343292 0.143701 -0.139113 -0.1517192 -0.8478007 0.5081489 
-0.433146 0.140548 0.0899153 0.5723447 0.3408388 0.7458219 
0.0240741 0.678223 0.00678001 -0.6388465 -0.5824274 0.5026465 
-0.310223 0.674503 -0.0211538 0.2655748 -0.3923878 0.8806258 
-0.452031 -0.165425 0.0115067 0.4619748 0.1954957 -0.8650784 
-0.24571 0.208795 -0.0116889 0.3471483 0.107395 -0.9316407 
0.217575 -0.442954 0.142682 -0.6662951 0.4822986 0.568717 
0.308611 0.275393 0.00347097 0.3780617 -0.9196237 0.1065909 
-0.264921 -0.716135 0.0880494 0.3931877 0.1546071 -0.9063665 
0.126258 -0.793535 0.171228 0.1707591 0.3965086 -0.9020101 
-0.0274103 0.0521826 -0.140068 0.6348947 0.1960871 0.7473009 
0.422157 -0.567204 0.243585 -0.4480875 0.2354098 -0.8624383 
-0.257177 -0.00490612 -0.145056 0.4921353 0.2054282 -0.8459327 
0.208543 0.176418 0.0487205 -0.8364183 0.5034652 0.216627 
0.211361 0.113387 0.0136501 -0.761014 0.4613588 0.4560764 
-0.127917 0.254153 -0.00985028 0.7176633 0.1229295 0.6854542 
-0.455314 0.129551 0.100285 0.3534514 0.1767076 0.9186111 
0.190386 -1.12364 -0.345444 -0.4651219 0.7504106 0.4696229 
0.482792 -0.736401 -0.0757226 -0.8552824 0.4603524 0.2378395 
0.00684913 0.666954 0.175622 -0.7330022 -0.1671396 -0.6593725 
-0.118532 -0.384773 -0.38523 0.6065034 0.02068552 0.7948117 
0.0520774 0.754718 0.121266 -0.8132656 -0.359508 -0.457551 
-0.586902 0.307158 0.0872 0.999245 0.03429035 0.01826506 
-0.213591 0.355752 -0.155707 0.4366638 -0.2752869 0.8564705 
-0.0864366 0.61268 0.108632 -0.2283304 -0.06117203 -0.9716601 
-0.0371371 0.204797 -0.135688 -0.9384022 -0.2433503 0.2453198 
-0.332319 -0.79356 0.0122725 0.8324654 0.1889046 -0.5208805 
-0.0365102 0.513898 0.126312 -0.1915566 0.1340668 -0.9722819 
-0.37152 0.018198 -0.0904179 0.7907161 -0.01027863 0.6120967 
0.21239 0.0211157 -0.113975 -0.8416973 -0.08000078 0.5339901 
0.217447 0.0486324 -0.0212648 -0.5865468 0.4352391 0.6830299 
0.33517 0.276047 0.00401451 0.2100581 -0.9706426 0.1171688 
0.059813 0.206982 0.0625075 0.8112472 -0.3898235 0.4357931 
-0.156789 0.274313 -0.182397 0.2649194 -0.2528543 0.930528 
0.367414 -0.431704 0.23109 -0.815116 0.4629527 0.3482249 
0.450385 -0.0235996 -0.0343684 -0.4659751 0.4927118 -0.7349164 
0.414507 -0.850431 -0.124942 -0.9119749 0.3708287 0.1754645 
0.0434096 0.18262 -0.206079 0.03212953 0.6706584 0.7410702 
0.234565 0.0901796 0.333475 0.5466479 -0.3801134 -0.7461166 
0.177453 -0.572466 -0.430572 -0.1936335 0.02391524 0.9807824 
0.218524 0.185041 0.190138 -0.9213077 0.2676141 0.2820898 
-0.297391 0.435238 -0.01618 0.8303365 0.1400703 -0.5393715 
-0.139378 0.467862 -0.104722 0.8063087 -0.2215277 0.5484448 
0.0636715 0.726979 0.117775 -0.8230482 -0.339847 -0.4550777 
0.313751 -0.0278294 0.332267 -0.6112731 -0.7787015 0.1413121 
0.261241 -1.08644 -0.114317 0.8673246 0.4290022 -0.2523987 
-0.0467782 0.243846 0.00147253 -0.9478278 -0.205058 0.2440776 
0.282718 0.270085 0.00197894 0.5426065 -0.8365526 0.07588087 
-0.163354 0.450829 0.0186296 -0.04821436 -0.1582098 0.9862276 
0.544258 -0.623893 0.133897 -0.9087518 0.3275263 -0.2586441 
0.114908 0.550111 0.0753275 -0.7374841 -0.00925036 -0.6753011 
0.373559 0.0880168 -0.178587 -0.3422102 -0.7170209 0.6072671 
-0.0706654 0.146854 -0.176029 0.9913745 0.1293889 0.02085959 
0.245881 -0.0373238 -0.278672 -0.648858 -0.495574 0.577399 
0.127301 0.307741 0.0476409 -0.2372143 0.08975398 -0.9673023 
-0.00830459 0.0595059 -0.0514525 -0.3223745 0.2290918 0.9184725 
-0.0510002 0.00985296 -0.167203 -0.8077412 0.5185619 0.2804418 
-0.359586 -0.200129 0.0419024 -0.04273699 -0.1214595 -0.9916759 
0.142938 -0.775118 0.184186 -0.3968563 0.4085278 0.8219551 
0.477765 -0.282059 0.0755206 0.04143097 0.4156946 -0.9085602 
0.479664 -0.118686 0.365788 -0.7410503 -0.4599026 -0.4892179 
-0.442823 -0.190251 0.00869211 0.5305004 0.1769397 -0.8290125 
-0.150851 -0.29842 -0.364728 0.7425147 0.03371958 0.6689805 
-0.227699 0.217726 -0.172226 0.5181094 -0.1928379 0.8332924 
-0.433462 -0.21727 0.00336925 0.573444 0.1576784 -0.8039275 
-0.303144 -0.988753 -0.081135 0.8122962 0.2989413 -0.5008084 
0.122592 0.526183 0.0647465 -0.7374841 -0.00925036 -0.6753011 
-0.315405 0.552167 -0.0223423 0.7447915 -0.2650846 0.6123854 
0.379425 -0.466243 0.245419 -0.852619 0.4598259 -0.2481952 
0.136766 -0.402386 0.00953063 -0.6523693 0.3394049 0.6776567 
-0.204613 0.0530833 -0.235679 0.7383396 -0.1993522 0.6442928 
0.202976 -0.290636 -0.418175 -0.497487 -0.1764998 0.849326 
0.0345773 -0.200942 -0.0599942 -0.565012 0.8249335 0.01568783 
-0.312202 -0.919742 -0.355076 0.4228062 0.9059258 -0.02309712 
-0.0600438 0.489858 0.0942996 0.1125413 0.1866442 -0.9759602 
-0.0754325 0.0471756 -0.0591152 0.2467237 -0.6626248 -0.7071462 
0.334346 0.270491 0.0519514 0.199936 -0.9741142 0.1054847 
0.153207 -0.946867 -0.461254 -0.5363222 0.1759245 0.825475 
0.0424021 0.546165 0.136912 -0.5235329 0.05120119 -0.8504656 
0.293475 -0.128182 0.305002 -0.88187 -0.2318254 -0.4105633 
0.177134 0.0533043 -0.240053 -0.9149607 -0.1962972 0.3525826 
-0.0662066 0.176311 -0.0800422 0.9650236 0.2149538 -0.1500809 
0.464828 -0.0943148 0.358709 -0.7207903 -0.4798327 -0.5002219 
0.0585651 0.392423 -0.104725 -0.08294266 -0.500448 0.8617845 
-0.142643 0.577524 -0.0463828 -0.7875673 -0.3123232 0.5312175 
0.453351 -0.0629587 0.29711 -0.6570245 -0.5790387 -0.4827349 
-0.536508 0.217702 -0.00373198 0.2854761 -0.369644 0.8842323 
0.439542 0.208089 0.0402362 -0.7292928 -0.6820611 0.05407985 
0.215773 0.0894997 -0.0025812 -0.7053873 0.4468513 0.5502297 
0.236287 -1.12074 -0.356665 -0.7515718 0.4506456 0.4817243 
0.0513352 0.486563 0.121446 -0.4389486 0.1019592 -0.8927085 
-0.443985 -0.0221468 -0.0916725 0.5762361 -0.1771204 0.7978598 
-0.127796 -0.913095 -0.481202 -0.04537044 0.9002529 0.4329968 
0.205242 -0.264711 -0.412361 -0.5042854 -0.2179312 0.8355849 
0.221246 0.111014 0.215483 -0.9161803 0.2470824 0.3155378 
0.190482 0.020332 -0.0137627 -0.5631842 0.4216935 0.7106321 
0.514047 -0.498653 0.2555 -0.2633827 0.4077456 -0.8742843 
0.134807 0.491851 0.048618 -0.77825 -0.03834685 -0.6267827 
-0.392969 -0.108719 0.0682281 0.39595 0.270388 0.8775613 
-0.370787 -0.0933541 -0.142186 0.8176143 -0.2022114 0.5390893 
-0.489569 0.148711 -0.034571 0.2121653 -0.3692658 0.904781 
-0.249873 -1.12848 -0.318569 0.01182008 0.9525712 0.3040862 
0.0823683 -0.842459 0.132933 0.1255143 0.3392673 -0.9322788 
0.117808 0.0147097 -0.037553 -0.4678164 0.2800318 0.8382899 
-0.0909007 0.296332 -0.114966 -0.8322532 -0.2653109 0.4867904 
-0.00132623 0.0300927 -0.0549836 -0.3124512 0.2179016 0.9246043 
-0.0411431 0.181205 -0.0242998 0.9571431 0.1836211 -0.2239654 
-0.0745733 -1.07003 -0.511051 0.009965708 0.9523168 0.3049481 
0.272883 -0.852324 0.161133 -0.167834 0.6956544 0.698496 
-0.018178 0.0898853 -0.0393905 -0.4126827 0.2094146 0.8864753 
-0.318528 -0.953686 -0.0763364 0.8154977 0.2945834 -0.4981807 
0.253757 0.0902592 0.113864 -0.8815431 0.2688843 0.3880502 
0.130848 -0.886992 -0.450743 -0.5342541 0.06808247 0.8425778 
0.0436552 -0.331897 -0.0654613 -0.1851255 0.9826909 -0.006849349 
-0.411057 -0.241398 -0.12342 0.8615693 -0.1066352 -0.4963136 
-0.0720551 -0.405985 -0.0287814 -0.2190554 0.9270909 0.3041665 
0.258979 0.262997 0.0111254 0.5426065 -0.8365526 0.07588087 
0.424724 -0.0672428 0.2125 -0.5186457 -0.6418813 -0.5647964 
0.0305178 0.538309 -0.0419993 -0.1415311 -0.4176908 0.8974984 
-0.399474 -0.0514881 -0.119153 0.6644524 -0.1925525 0.7220987 
-0.315855 -0.926079 -0.0566624 0.8246632 0.2592527 -0.5027112 
-0.278306 0.14903 -0.0951872 0.8121638 0.1183212 -0.5713056 
0.391707 -0.190326 -0.0433756 0.2733915 0.6803867 0.6799493 
-0.539617 0.0898011 0.0644254 0.5003967 0.2093116 -0.8401141 
0.404217 -0.829176 0.0965998 -0.3819955 0.7837224 0.4897536 
0.22364 0.037813 -0.136572 -0.8563629 -0.2259831 0.4642999 
-0.0587674 0.034657 -0.123401 -0.1328053 0.5189468 0.844427 
-0.155068 0.630327 -0.0417926 -0.3723716 -0.4513554 0.8109363 
0.401096 -0.871604 -0.13494 -0.9303901 0.3345123 0.14992 
-0.190378 0.262684 -0.18161 0.4022509 -0.2197966 0.888754 
0.373494 -0.566459 -0.354384 -0.4217219 0.3668978 0.8291783 
-0.195916 0.200814 0.00607819 0.2386163 0.1054233 -0.9653746 
-0.148034 0.604586 -0.039909 -0.4701523 -0.4306542 0.7703854 
0.376545 0.221647 0.271077 0.1210368 -0.7486684 -0.6518019 
-0.0567987 0.0338312 -0.0803049 -0.1470623 0.4963877 0.8555536 
-0.25097 -0.0619503 -0.161249 0.5897053 0.1765661 -0.7880812 
0.578697 -0.547193 0.0841026 -0.9385287 0.07870543 0.3361089 
-0.441917 -0.0442945 0.0701743 0.2787601 0.2546564 -0.9259821 
0.0455181 -0.00570302 -0.0358881 -0.3733038 0.1486408 0.9157238 
0.309006 -0.116934 0.411693 0.5712413 0.3602036 -0.7375206 
0.0595208 0.316456 -0.141193 -0.05235203 -0.4796185 0.875914 
0.282561 -0.635745 0.245422 -0.0578788 -0.3473958 -0.9359307 
0.0710229 -0.521194 0.0260894 -0.9085298 0.367624 0.1985602 
-0.0962735 0.267256 -0.0445341 0.9699026 0.2377043 -0.05277856 
-0.188994 0.126324 0.00260565 0.1626276 0.2106961 -0.9639291 
-0.10024 -0.709222 0.0680171 0.288439 -0.09845638 -0.9524229 
-0.0952486 0.281991 -0.141118 -0.7506399 -0.2848224 0.5961677 
-0.0493434 0.391873 -0.0354114 0.8960967 -0.1945444 0.3989526 
0.0319599 0.779167 0.123845 -0.7788939 -0.3665 -0.5089223 
-0.190292 -0.738602 0.0927843 0.401895 0.111358 -0.9088892 
0.50195 -0.553262 0.234432 -0.3629776 0.3639908 -0.8577634 
0.473611 -0.0324249 -0.138919 -0.8617324 -0.4112513 0.2971356 
0.588758 -0.424455 0.182655 -0.03130686 0.2085599 -0.9775084 
0.325199 -0.84914 0.146014 -0.2093408 0.7683953 0.6047685 
0.592014 -0.248384 0.317201 -0.900672 0.03210986 -0.4333118 
0.033995 -0.919693 -0.491839 -0.3509832 0.5428457 0.762974 
-0.119924 -0.798428 0.0829228 0.2996396 -0.1197825 -0.9465032 
0.309531 -1.06529 -0.260645 -0.9990466 -0.008855121 0.04274778 
-0.214923 0.329174 -0.158628 0.4191995 -0.25695 0.8707746 
-0.249599 -0.648977 0.0914428 0.05115515 0.1817391 -0.9820153 
-0.354506 -0.955128 -0.185065 0.7616476 0.5081342 -0.4021101 
0.276919 -1.08377 -0.135624 0.9318474 0.3232071 -0.1649169 
-0.534139 0.360797 0.092501 0.6128071 -0.4693634 0.63574 
-0.0204265 0.0582032 -0.197826 0.9012479 -0.4130375 0.1309673 
-0.227701 0.551697 0.0480747 0.3065182 0.1790843 -0.9348665 
0.38117 -0.0328747 0.003774 -0.5037282 0.6592128 -0.5582978 
0.301854 0.229654 0.28801 0.5114392 -0.7085893 -0.4861389 
1.71586e-05 -1.03203 -0.0232525 -0.2312156 0.1967119 -0.9528084 
0.183137 -0.465196 0.125237 -0.6662951 0.4822986 0.568717 
0.176448 0.298098 -0.0331653 -0.9435576 -0.2061524 -0.2592299 
0.466947 -0.612714 -0.249518 -0.6044759 0.5768554 0.5494058 
-0.08275 0.253361 -0.139349 -0.8581957 -0.2695634 0.4368475 
0.396482 0.0247004 0.362939 -0.6750531 0.4229366 0.6045064 
0.0251974 -1.04052 -0.025859 -0.174421 0.2570736 -0.9505211 
-0.062766 -1.20011 -0.0980515 0.08958407 0.6848633 0.7231438 
-0.0387919 0.271988 -0.101683 -0.8409612 -0.2777012 0.4643988 
-0.193834 0.630447 -0.0747589 -0.2586771 -0.4545278 0.8523442 
-0.346018 -0.672987 0.0276716 0.8462266 0.1690847 -0.5052829 
-0.483626 0.33526 0.0336745 -0.1813606 -0.6298265 0.7552661 
0.0458661 0.123539 -0.230093 0.420226 -0.8596603 -0.290507 
0.343285 -0.0773359 -0.31806 -0.3678284 -0.6418236 0.672878 
-0.576425 0.274632 0.0534806 0.9876375 -0.01912119 0.1555848 
0.366075 -0.928923 -0.16702 -0.9664028 0.241518 0.08794773 
-0.292668 0.355314 -0.0401192 0.8614169 0.1382724 -0.4887145 
0.336512 -0.367071 0.154003 -0.6899632 0.3897629 0.6099473 
0.363762 -0.24594 0.261021 -0.9785696 -0.155865 0.1345644 
-0.432961 0.275243 0.0579135 0.5051509 0.7014971 -0.5027171 
-0.498337 0.288831 0.129884 0.447629 0.2629126 -0.854696 
-0.0970469 -0.263032 -0.0409358 -0.4690634 0.874473 -0.1235984 
0.311639 0.193135 0.325602 0.5251971 -0.570356 -0.6315552 
0.451761 -0.285372 0.0790211 0.02483572 0.4004189 -0.9159955 
-0.0060635 0.638229 -0.00876385 -0.4063018 -0.5230925 0.749195 
0.0757709 0.694485 0.112245 -0.8237016 -0.269708 -0.4987717 
-0.0250903 0.115945 -0.0318347 0.7519126 -0.03015781 -0.6585727 
0.243332 -0.850911 0.166319 -0.167834 0.6956544 0.698496 
0.214469 0.148232 0.0835665 -0.8682974 0.4288386 0.2493133 
-0.323807 0.0113922 -0.0298492 0.9203764 0.1675066 0.3533397 
-0.412641 0.149631 0.0757074 0.6812614 0.4457069 0.5807137 
-0.0892998 -1.01889 -0.0222023 0.6931045 0.2931055 0.6585554 
0.424821 0.195602 0.228886 -0.9155492 0.1459244 -0.3748008 
-0.40852 -0.325843 -0.00333949 0.7080816 0.1388732 -0.69234 
0.04418 -0.588343 0.0239319 -0.9432218 0.3295977 -0.04120758 
-0.19632 -0.129653 -0.289987 0.8094084 -0.04854364 0.5852363 
-0.28115 -0.0679755 -0.0469173 0.9304282 0.2723837 0.2451745 
0.473766 -0.063783 -0.151119 -0.8736174 -0.4573497 0.166204 
0.501582 -0.219086 0.112544 -0.2431332 0.3074469 -0.9199798 
0.218528 0.216373 0.0434129 -0.7548872 0.6518452 0.07240904 
0.375863 -0.0938248 -0.314078 -0.3986939 -0.6573332 0.6394968 
-0.50996 0.00551867 0.0462331 0.3758852 0.234042 -0.896624 
0.391347 -0.49647 0.250631 -0.5960678 0.2921419 -0.7479013 
0.583186 -0.525259 0.0697153 -0.9376183 0.07282105 0.3399545 
0.488545 -0.624729 -0.201275 -0.6521188 0.5800371 0.488158 
0.550652 -0.591582 -0.00448853 -0.9362673 0.207281 0.2836164 
0.0406379 0.0457469 -0.0405752 -0.3700916 0.1597043 0.9151649 
0.119072 -0.937824 -0.469067 -0.4931391 0.2429425 0.8353399 
-0.28695 0.270416 -0.0747824 0.8553002 0.1284527 -0.5019577 
-0.449633 0.142156 -0.0464954 0.1557428 -0.4032414 0.9017431 
0.15006 -0.380764 0.00173701 -0.5321711 0.2936443 0.7940824 
-0.040395 0.668184 0.0189087 -0.417259 -0.5110252 0.7514972 
0.326318 -1.02161 -0.203506 -0.9999394 0.007022224 -0.00848303 
-0.187151 -0.150083 -0.306036 0.7936771 0.00392494 0.6083266 
0.0857702 0.0154354 -0.0391587 -0.3953555 0.1755689 0.9015929 
-0.0491365 0.329734 -0.048566 0.9065527 -0.188925 0.3774514 
-0.291274 0.691913 -0.013427 0.1208268 -0.4211542 0.8989048 
0.322597 0.243022 0.247844 0.3596922 -0.8419014 -0.4022729 
0.243458 0.041479 0.370565 0.5328394 -0.3822116 -0.754981 
0.574592 -0.181818 0.324872 -0.9116054 -0.168428 -0.3749769 
0.550977 -0.267721 0.357051 -0.5005424 0.3340952 -0.7986473 
-0.00634437 -0.360525 -0.0535391 -0.1714635 0.9514131 0.2557604 
-0.0740366 -0.253845 -0.0541238 -0.4836018 0.8669482 -0.1205409 
0.509194 -0.523003 0.245431 -0.3178777 0.3912102 -0.8636598 
-0.0367065 0.151703 -0.0333065 0.938649 0.1426744 -0.3139778 
-0.484714 0.311961 0.0199521 -0.1502849 -0.5971069 0.7879579 
0.330248 0.264229 0.0830304 0.1633754 -0.983825 0.07346357 
0.227189 -0.744661 -0.411064 -0.381218 0.02092366 0.9242483 
0.463532 0.16147 0.020418 -0.8966975 -0.4321356 0.09587667 
0.278227 -0.0547267 -0.296652 -0.4349348 -0.6091698 0.663132 
0.242545 -1.02717 -0.0420277 0.5976064 0.6358338 -0.4884485 
0.0551349 0.422009 -0.0934863 -0.08506824 -0.4604641 0.8835928 
-0.167324 -0.632443 -0.397347 0.2945269 0.25915 0.9198343 
0.383544 0.0848741 0.184727 -0.9075021 0.419019 -0.02937751 
-0.0146877 0.797891 0.112505 -0.7037418 -0.3558387 -0.6149198 
0.360915 0.00133831 0.406809 -0.8345564 0.04495107 0.5490856 
0.355563 -0.0217469 -0.263129 -0.3365408 -0.6579934 0.6736357 
0.529176 -0.627266 0.159337 -0.8062963 0.3787797 -0.4543261 
0.47453 -0.0071028 -0.125339 -0.7983074 -0.3651037 0.478962 
-0.0963541 -1.11841 -0.357181 0.004440994 0.9513333 0.3081318 
-0.384573 0.131056 0.00768947 0.8170714 0.5630056 0.1241735 
-0.155602 -0.272654 -0.361202 0.7571665 0.0313658 0.6524684 
-0.377751 -0.252518 0.037197 0.3930027 0.03133408 -0.9190032 
0.0489552 0.33909 -0.131424 -0.07191934 -0.5040812 0.8606566 
0.0855914 0.668481 0.105529 -0.8140919 -0.2181735 -0.5381957 
0.165177 -0.357153 -0.00482992 -0.408157 0.2506702 0.8778225 
-0.333627 -0.204781 0.0379145 0.04273698 0.1214595 0.9916759 
0.22049 0.100479 -0.0985081 -0.8347498 -0.3286961 0.4417596 
-0.162053 -0.0390062 -0.0605801 0.02280607 -0.4543554 0.8905286 
0.528157 -0.146815 0.34038 -0.8433337 -0.3238786 -0.4288249 
0.0434544 0.151542 -0.221067 0.1757273 -0.8350663 -0.5213292 
0.576867 -0.478077 0.0279234 -0.8827231 -0.02235358 0.4693616 
-0.0859054 -1.08655 -0.457994 0.009965708 0.9523168 0.3049481 
0.116088 -0.438721 0.0175943 -0.7435685 0.3633619 0.5613145 
0.459093 -0.680373 -0.210311 -0.6549707 0.5816106 0.4824339 
0.017985 0.583743 -0.025113 -0.1521547 -0.4243906 0.8926038 
0.318184 -0.141756 0.407662 0.5712413 0.3602036 -0.7375206 
-0.0902302 0.75194 0.127212 -0.5358075 -0.2889639 -0.7933538 
0.268795 -0.00366384 0.0140205 -0.604015 0.7767723 0.1782995 
-0.489185 0.109959 0.103371 -0.1665006 -0.0776993 -0.9829752 
-0.250588 0.429979 0.0250196 0.4136446 0.1507275 -0.897875 
0.428812 0.148798 0.207172 -0.9102269 0.3944996 -0.1259253 
0.289691 -0.0342575 0.365718 -0.7914551 -0.4371831 0.4271648 
0.212264 0.192498 0.0825949 -0.8475491 0.4977731 0.1840716 
0.284862 -0.171248 -0.0149017 0.008603438 0.2662451 0.9638669 
-0.340217 -0.709525 0.0210255 0.8392606 0.1747371 -0.5148871 
-0.175626 0.68359 -0.0369925 -0.3591612 -0.4594922 0.8123239 
0.0701625 0.379286 0.0883283 -0.168543 0.1462036 -0.9747911 
0.409405 -0.0512289 0.227614 -0.4967753 -0.723425 -0.4794481 
0.278617 0.080584 0.117524 -0.8640468 0.06578407 0.4990946 
0.291194 0.0381152 0.243319 0.08253308 -0.970126 -0.2281308 
-0.339932 0.028882 -0.0508902 0.900066 0.1278449 0.4165776 
0.35586 -0.101731 -0.33166 -0.3678284 -0.6418236 0.672878 
0.478478 -0.18021 -0.180077 -0.7149636 -0.6410475 -0.2790792 
0.479113 -0.662767 0.171545 -0.6282644 0.4083602 -0.6622128 
0.469785 -0.758838 -0.0853987 -0.847075 0.4727581 0.2428244 
-0.407818 0.166485 -0.0108278 0.7216349 0.6698084 -0.174928 
0.424755 -0.297533 0.0252251 0.04064387 0.4810759 -0.8757362 
0.31401 -0.216729 -0.0259467 0.1034657 0.3727424 0.9221485 
-0.192584 0.692849 -0.0551381 -0.3591612 -0.4594922 0.8123239 
0.406218 0.0472962 0.301723 0.4336673 -0.7578191 -0.4874862 
-0.182158 0.0447101 -0.0261845 -0.02812077 -0.3628676 0.9314163 
0.389498 -0.28692 0.285217 -0.8891242 -0.2949644 0.3499343 
-0.0279005 0.293379 0.0521042 -0.7723879 -0.2493216 0.5841709 
0.20834 -1.02768 -0.0269544 0.4873889 0.6500487 -0.5829998 
-0.309431 -0.180435 0.0281882 0.1043729 0.1328754 0.9856219 
0.281133 -0.404235 0.181194 -0.6835624 0.4493478 0.5751773 
-0.0319808 -0.908702 -0.501591 -0.2288973 0.7268781 0.6474984 
-0.160175 0.460357 -0.120127 0.7287839 -0.2555819 0.6352574 
0.310174 -0.0652244 -0.308759 -0.3749472 -0.6326895 0.677583 
-0.342083 -0.927132 -0.303545 0.5795891 0.7964405 -0.1725081 
0.211971 -0.52528 -0.423134 -0.2599107 0.04182657 0.9647263 
-0.392993 -0.432761 -0.00165338 0.7740864 0.1494888 -0.6151775 
-0.446581 0.0387301 -0.0802051 0.5015062 -0.2188328 0.8370208 
0.430016 -0.0294028 -0.017486 -0.6450388 0.4658132 -0.6057582 
0.453208 -0.60701 -0.27199 -0.5974725 0.5780081 0.5558178 
-0.0052087 0.284175 0.0645028 -0.7059795 -0.2469826 0.6637715 
-0.281412 0.21399 -0.0932326 0.8236273 0.1237194 -0.5534723 
0.313623 -0.0199227 0.0189995 -0.4756504 0.8161016 -0.3282299 
0.366633 -0.354736 0.149776 -0.6899632 0.3897629 0.6099473 
0.335268 -0.553801 -0.37751 -0.3764388 0.2847354 0.8816006 
0.473299 -0.0942929 -0.164998 -0.8564913 -0.5160521 0.01061888 
0.453726 -0.251735 0.38445 0.157793 0.4943455 -0.8548239 
0.52137 -0.371295 0.313312 -0.08366226 0.4694874 -0.8789665 
0.560812 -0.561546 0.00619804 -0.9445104 0.1227298 0.3046924 
0.502034 -0.678264 -0.102198 -0.8616158 0.4436879 0.2464937 
-0.0921014 0.643792 0.111065 -0.3124025 -0.1328148 -0.9406195 
-0.245238 -0.909736 -0.420947 0.2025279 0.9643035 0.1705906 
-0.0533462 0.566384 0.00764968 -0.1388104 -0.4226452 0.8956018 
0.392892 -0.22388 0.177941 -0.7714085 0.1142438 -0.6260011 
-0.0795916 -1.16777 -0.199994 0.02138994 0.8812535 0.4721597 
-0.331294 -1.01537 -0.120887 0.8099499 0.2827846 -0.513823 
0.182765 0.220943 -0.0769782 -0.9914115 -0.07770175 0.1051934 
0.035626 -0.715608 -0.456466 -0.3018506 -0.1801138 0.9361866 
-0.0209174 -1.09172 -0.0435488 -0.2412242 0.18463 -0.9527448 
-0.0570473 0.410058 -0.0171036 0.8931011 -0.1928197 0.406437 
0.217791 -0.96304 -0.428133 -0.7296478 0.05003917 0.6819899 
0.116064 0.544495 0.00401266 -0.8999387 -0.1699252 -0.4015417 
-0.0188869 -0.224179 -0.0550632 -0.5208448 0.849711 -0.08192585 
0.0641639 0.514686 0.118962 -0.5241634 0.07252114 -0.8485242 
-0.429789 -0.257985 -0.0742813 0.7755767 0.02217848 -0.6308637 
-0.345122 -1.04082 -0.123735 0.809247 0.2554809 -0.5290073 
-0.224212 0.167255 -0.187386 0.5992501 -0.1817055 0.7796682 
-0.0140752 0.672775 0.00856617 -0.417259 -0.5110252 0.7514972 
0.396653 0.250242 0.0206427 -0.279939 -0.9557645 0.09026861 
-0.177992 -1.00261 0.00696126 0.8247179 0.5527314 -0.1197015 
-0.0916183 -1.09682 -0.425883 0.008949785 0.9521331 0.3055525 
0.0361067 0.573312 0.147682 -0.5392656 0.03218903 -0.8415203 
0.15311 -0.28043 -0.0581374 -0.09527677 -0.06583608 0.9932713 
-0.401339 0.156964 0.0524044 0.7570161 0.5228284 0.391889 
0.0516862 -0.56425 -0.439028 0.09704332 -0.05241182 0.9938992 
-0.285266 -0.914549 -0.386219 0.3455629 0.9373319 0.04466854 
-0.067826 -0.779383 0.0679526 -0.2869134 0.1405277 0.9475931 
-0.158755 -1.12653 -0.328517 0.007562011 0.9518645 0.3064257 
-0.0201114 0.563197 -0.0211376 -0.1388104 -0.4226453 0.8956018 
-0.0672733 -0.606003 -0.430696 0.1723605 -0.01527779 0.9849155 
0.474634 -0.185525 -0.151175 -0.6676305 -0.6420911 -0.3768138 
0.177525 -0.740535 0.205792 -0.3348201 0.9048845 0.2628299 
-0.19631 -0.307308 0.0322448 -0.4349623 0.8959053 -0.09034117 
0.512167 -0.180326 0.13752 -0.3629628 0.2046294 -0.9090572 
0.0719994 0.730172 0.0839831 -0.8317885 -0.3513732 -0.4297262 
-0.113309 -1.01414 -0.0108394 0.8037107 0.465794 0.3702499 
0.49719 -0.588499 0.216275 -0.4470526 0.356356 -0.8204598 
-0.232387 0.461614 0.034952 0.3001004 0.1500749 -0.9420282 
-0.18346 -0.912762 -0.459496 0.07483458 0.952175 0.2962477 
-0.0482608 0.020977 -0.102135 -0.2419653 0.5266498 0.8149189 
-0.0677775 0.0904488 -0.200791 0.9222506 -0.3738917 0.09827951 
0.282648 0.0231165 0.265822 0.08253308 -0.970126 -0.2281308 
0.260267 -0.251946 -0.0223262 -0.02034368 0.262154 0.9648116 
-0.22783 0.192172 -0.179063 0.5555043 -0.1871584 0.810177 
-0.511527 0.243703 -0.0098468 0.2089074 -0.3932153 0.895399 
0.41571 0.0959419 0.250199 -0.8738593 0.4854774 -0.02610585 
0.442872 -0.0836086 0.200832 -0.5373546 -0.5071363 -0.6738418 
0.568431 -0.432893 0.0437087 -0.7769226 -0.1385432 0.6141637 
-0.216795 0.336445 0.0224026 0.2061886 0.1148305 -0.9717511 
0.493273 -0.10883 0.33854 -0.7410834 -0.4633502 -0.4859031 
-0.0590451 0.090209 -0.120817 0.7958118 0.2379752 0.5568226 
0.0554964 -0.750514 -0.455764 -0.3826216 -0.1825734 0.9056863 
-0.130444 0.280216 -0.169699 -0.2879005 -0.3232948 0.9014398 
-0.0176752 -1.12651 -0.333747 -0.08538489 0.9325274 0.3508588 
-0.0960006 -1.10911 -0.385858 0.006112989 0.9516278 0.3071924 
-0.0766951 0.208629 -0.154801 -0.9384616 -0.2418008 0.2466215 
0.33617 -0.996559 -0.195512 -0.9931774 0.114183 0.02368791 
0.261239 0.0941736 0.363717 0.5328394 -0.3822116 -0.754981 
-0.0829268 0.239869 -0.0571954 0.9647692 0.2082482 -0.1607888 
0.421762 -0.299379 0.333081 0.59119 0.4510598 -0.6686101 
-0.368269 -0.778493 -0.138006 0.9065518 0.4215328 0.02177201 
-0.186717 0.520991 -0.115095 0.6555421 -0.2818683 0.7005817 
0.593286 -0.47486 0.145585 -0.6932641 -0.1013523 0.7135213 
-0.43448 0.0148081 -0.0911543 0.5696444 -0.1776409 0.8024643 
0.289243 -0.101875 0.317177 -0.8950859 -0.4363271 -0.09186808 
0.185263 -0.0742233 -0.0121713 -0.5500802 0.5242459 0.6500599 
0.189348 0.157648 -0.113131 -0.8754379 -0.2831249 0.3917255 
0.514603 -0.463897 0.269351 -0.216148 0.4265835 -0.8782406 
0.509912 -0.686944 -0.0501317 -0.8707137 0.4307049 0.2373834 
-0.397998 -0.266245 0.0234153 0.6140056 0.1124918 -0.7812443 
0.352099 -0.186733 0.403079 0.4964151 0.3689811 -0.785764 
-0.466188 -0.124653 0.0206828 0.4056417 0.210898 -0.8893688 
-0.209821 0.0816208 -0.227836 0.7061164 -0.1889588 0.6824179 
0.00698838 0.790444 0.12611 -0.7788939 -0.3665 -0.5089223 
0.241825 0.247039 0.0237262 0.6212329 -0.7825897 0.04028626 
0.067546 0.271146 0.0688062 0.06952418 0.1752232 -0.9820709 
0.237929 -0.68179 0.231034 -0.2006386 0.6890484 0.6963881 
0.0238189 -0.684226 0.0623137 -0.9429692 0.2909445 -0.1617415 
-0.174018 -0.00814327 -0.0603796 0.003433719 -0.4064805 0.9136531 
-0.191966 -0.0365422 -0.0663583 -0.01062183 -0.4037955 0.9147877 
0.510383 -0.329319 0.0444553 -0.3205914 -0.378917 0.8681262 
-0.080148 -1.15862 -0.229612 0.01511678 0.9045793 0.4260372 
-0.297023 0.406234 -0.0258565 0.8329256 0.1427923 -0.534645 
0.422568 -0.117078 0.401092 -0.6993089 -0.4955895 -0.5151294 
0.0547286 0.711848 0.0357667 -0.8432232 -0.5371178 0.0218899 
0.359493 0.0798389 0.113539 -0.9212515 0.3356541 0.1965502 
-0.321942 0.612672 -0.0194445 0.5408235 -0.3184494 0.7785241 
-0.280986 -0.777685 0.0748122 0.5525225 0.1563959 -0.8186936 
0.437965 -0.599113 -0.292285 -0.544006 0.5325501 0.6484195 
0.0836331 -0.17291 -0.0630346 -0.6018474 0.7779382 0.1805327 
-0.487537 0.222333 0.122885 0.04195184 0.01128909 -0.9990559 
-0.281366 -0.131576 -0.133187 0.8576152 -0.01726282 -0.5140021 
0.225736 0.0265355 -0.00838884 -0.590854 0.45844 0.6638707 
0.228079 -1.00996 -0.426824 -0.7663955 0.03444186 0.641445 
-0.48417 0.24936 -0.0106294 0.1990795 -0.3936544 0.8974428 
0.0715257 0.297226 0.0671069 0.04888771 0.1694041 -0.9843333 
-0.0844921 -1.07855 -0.483259 0.009965708 0.9523168 0.3049481 
0.478585 -0.61868 -0.225763 -0.6262735 0.58507 0.5152422 
-0.383878 -0.0693224 -0.131069 0.6644524 -0.1925524 0.7220987 
0.455952 -0.795083 0.0207994 -0.6451235 0.6700445 0.3672275 
-0.128386 0.509809 -0.0492114 0.9975511 0.05854473 -0.0382672 
0.465454 -0.016044 -0.0550911 -0.9869412 0.07985719 -0.1398927 
-0.335704 -0.981794 -0.130763 0.8086113 0.3018392 -0.5050157 
0.0460276 -0.936261 0.053178 -0.05557324 0.3620267 -0.9305097 
0.0358054 0.280407 0.0715258 0.2309187 0.2034427 -0.951466 
-0.180759 -0.180462 -0.322322 0.7936772 0.003924941 0.6083266 
0.421672 -0.192391 0.156952 -0.6333081 0.170388 -0.7549097 
0.442851 0.0648905 -0.145096 -0.7288575 -0.4133103 0.54584 
0.178185 -0.00672386 -0.0108348 -0.5557322 0.4216334 0.7165102 
0.397696 -0.0346292 0.244583 -0.4307239 -0.7937415 -0.429478 
-0.0578378 -0.530428 -0.429331 0.2066895 -0.02891813 0.9779791 
-0.388398 -0.494738 0.00319556 0.8181108 0.157833 -0.552977 
0.153792 0.337731 -0.0847741 -0.8719901 -0.4612667 0.1639092 
-0.523986 0.0937705 0.0858693 0.3631458 0.1580171 -0.9182352 
-0.174924 -0.210969 -0.336663 0.7834743 0.01992288 0.6211048 
0.104692 0.527248 0.0917256 -0.6887775 0.01360548 -0.7248452 
-0.320794 -0.790645 0.0362413 0.790247 0.1816455 -0.5852476 
0.0172425 -0.736257 0.0733313 -0.4275491 0.2419391 0.8710151 
-0.528386 0.059853 0.058947 0.4215957 0.2156992 -0.8807558 
0.333255 0.266205 -0.0272941 0.2127652 -0.9684017 0.1301121 
-0.266267 0.443567 -0.10438 0.4857476 -0.3076853 0.8181559 
0.327441 -0.0148024 0.411454 -0.8512055 -0.133862 0.5074742 
0.501468 -0.139965 0.168442 -0.4453434 -0.001261995 -0.895359 
0.422096 -0.28836 0.0927984 0.130354 0.3307276 -0.9346802 
0.223159 0.133122 0.296167 0.7677812 -0.3242482 -0.5526075 
-0.418973 -0.0064583 -0.101196 0.5901453 -0.16863 0.7894887 
-0.192333 0.164945 0.00640124 0.2453458 0.1295452 -0.9607411 
0.146693 -1.03361 -0.0165177 0.2233834 0.5805861 -0.7829557 
-0.31986 0.642912 -0.0181569 0.3568942 -0.3675103 0.8588147 
-0.428449 -0.0154975 0.0766565 0.2461957 0.2422542 -0.9384564 
0.444648 -0.801846 -0.100679 -0.8756087 0.4319012 0.216265 
-0.237692 0.246579 -0.163269 0.4521531 -0.2070681 0.8675715 
-0.0168711 -0.623943 -0.440246 0.07520892 -0.06352898 0.995142 
0.316932 0.0960222 0.380807 0.520802 -0.4086216 -0.7495291 
0.468063 -0.180542 -0.22789 -0.7176907 -0.6896074 -0.09675549 
0.390301 0.0727073 0.364814 0.5391361 -0.5349136 -0.650538 
0.210309 0.137673 0.232904 -0.9161803 0.2470824 0.3155378 
-0.112352 0.399677 -0.0752989 0.9359754 -0.13827 0.3237769 
-0.0464391 -0.238842 -0.0565465 -0.5009218 0.8587837 -0.107554 
-0.02728 0.0499084 -0.107174 0.1513522 0.3933797 0.9068323 
-0.243923 -0.0585768 -0.13552 -0.3851317 -0.2489395 0.8886522 
0.57043 -0.551205 0.0542859 -0.948043 0.09547336 0.3034789 
-0.200118 0.70622 -0.0303859 -0.3151208 -0.4607721 0.8296915 
0.226802 0.183415 -0.0456638 -0.9675046 0.00741477 0.2527446 
0.253719 0.0673038 0.369886 0.5328394 -0.3822116 -0.754981 
-0.219613 0.367175 0.0260374 0.2645477 0.1283276 -0.9557963 
-0.320715 -0.971312 -0.0963538 0.8109967 0.2915544 -0.5072283 
0.533125 -0.637618 -0.0259549 -0.9088084 0.3308888 0.254126 
0.269745 0.222281 0.285207 0.7404677 -0.5079511 -0.4401059 
-0.189798 -0.531571 0.0723717 -0.3990959 0.1544688 -0.9038041 
0.497162 -0.671504 -0.128605 -0.8342448 0.4726129 0.284029 
0.38619 -0.564981 0.256481 -0.455998 0.2199806 -0.8623656 
-0.00622778 0.339939 -0.113731 -0.1557487 -0.4846134 0.8607509 
-0.0918101 -0.787953 0.0752613 -0.2869134 0.1405277 0.9475931 
0.243892 0.0104022 0.00348964 -0.6038776 0.5433006 0.5832292 
0.459708 -0.613454 0.216108 -0.4860219 0.3651126 -0.7940248 
0.595576 -0.204684 0.310126 -0.9361343 -0.05739335 -0.3469274 
-0.0400962 0.137179 -0.129712 0.9618449 0.2227021 0.158928 
0.360532 -0.371469 0.171166 -0.7103803 0.4087706 0.5729454 
0.351658 -0.00221477 -0.245722 -0.3219449 -0.6770887 0.661742 
-0.281157 -0.681863 -0.323145 0.5059327 0.5253422 0.68414 
0.0607326 -0.886869 0.0985312 0.03097245 0.3798691 -0.9245216 
0.469941 0.0596306 -0.0922933 -0.7843992 -0.3674295 0.4997134 
-0.421789 0.242767 0.0521509 0.6306844 0.7004347 -0.3341085 
-0.464307 0.0931958 0.102082 0.2901378 0.1317995 0.9478655 
-0.37279 -0.62338 0.00123389 0.8475248 0.1671295 -0.5037553 
0.0492367 -0.0464325 -0.0343324 -0.3733039 0.1486408 0.9157238 
-0.284637 0.242062 -0.0872977 0.8236273 0.1237194 -0.5534723 
-0.26005 -0.11516 -0.0315522 0.9174858 0.2850267 0.2774521 
0.237513 0.0778567 -0.14683 -0.8391644 -0.3033009 0.4514551 
0.0426071 0.0778974 -0.00333352 -0.4318743 0.1476711 0.8897628 
-0.261543 -0.0979277 -0.0614306 0.9618869 0.2503141 0.1100747 
0.238281 -0.269717 -0.0210747 -0.1103803 0.1848952 0.9765398 
0.220881 -1.07856 -0.072912 0.6934118 0.5778763 -0.4303943 
0.153613 -1.12555 -0.339324 -0.4651219 0.7504106 0.4696229 
-0.426953 0.15163 -0.0356471 -0.04055392 -0.5237507 0.8509058 
0.0556434 -1.03817 -0.0259668 -0.06631361 0.3716063 -0.926019 
0.306516 0.0751857 0.11926 -0.897714 0.2474769 0.3645064 
-0.514071 0.109132 -0.0283313 0.2333553 -0.353909 0.9057007 
0.366848 -0.542992 0.259294 -0.4864937 0.2235493 -0.8446003 
0.345987 0.06021 -0.201774 -0.2893346 -0.7359042 0.6121523 
0.226461 0.0282828 -0.161642 -0.8653226 -0.2171182 0.4517483 
0.00630679 -0.212096 -0.0547487 -0.5426538 0.8389313 -0.0414887 
0.254655 -0.132418 -0.356432 -0.4565721 -0.4723783 0.7539235 
0.0514156 0.141487 0.0408288 0.7952626 -0.2346809 -0.5590012 
0.222013 0.187868 0.263518 -0.9065097 0.2666519 0.3273178 
0.00991146 -1.00501 -0.00245441 -0.1881201 0.2420717 -0.9518467 
0.244528 -1.08459 -0.0938865 0.790988 0.5118518 -0.33518 
-0.00567167 0.0516807 -0.223644 0.8535126 -0.5134021 0.08907517 
-0.127067 -0.00792625 -0.265371 0.8509276 -0.2850923 0.4411854 
-0.488684 0.192757 -0.0287738 0.2359332 -0.3727606 0.8974325 
0.0194469 0.340476 -0.122418 -0.06992187 -0.4948573 0.8661566 
-0.224156 -0.0494446 -0.235946 0.9202406 -0.2080616 0.3314628 
0.0771207 0.33923 -0.131888 -0.162128 -0.5292614 0.8328246 
-0.423401 -0.278677 -0.018994 0.6728486 0.1328459 -0.7277545 
0.445184 -0.804155 0.0452482 -0.5511636 0.7255275 0.4121026 
0.177251 -0.0331719 -0.0112931 -0.5490857 0.4353127 0.7134478 
0.463458 -0.187545 -0.126361 -0.5655523 -0.6718094 -0.4783541 
0.124683 -1.12608 -0.336709 -0.3465258 0.8261671 0.4442609 
0.299014 -0.0316171 0.392704 -0.7914551 -0.4371832 0.4271647 
0.0194959 -0.710159 0.0670202 -0.4176935 0.02398215 -0.9082714 
0.266183 -0.981135 -0.382592 -0.8516862 0.04300395 0.5222847 
-0.0487571 0.187263 -0.0557474 -0.9589648 -0.1874673 0.2127026 
-0.401996 -0.0840483 0.0721889 0.7987803 0.5996963 -0.04810838 
-0.223592 -0.654108 -0.364678 0.3899734 0.4246878 0.817044 
0.392403 -0.304499 0.111804 -0.425474 -0.01441528 0.9048558 
0.299687 -1.05082 -0.315976 -0.9729692 0.05511124 0.2242629 
0.207847 -0.459472 -0.424516 -0.3581886 -0.01540881 0.9335221 
0.294545 0.0107512 0.0649609 -0.3076369 0.8878118 -0.3422714 
-0.493081 0.358026 0.0840591 -0.02892425 -0.638779 0.7688464 
0.471587 -0.770362 -0.0351966 -0.8220086 0.5062039 0.260882 
0.476254 -0.265539 0.375998 0.01949122 0.4886992 -0.8722346 
-0.266627 0.0532159 -0.12028 0.6903093 0.1442127 -0.7089965 
-0.318196 -0.897588 -0.0418967 0.8318849 0.240722 -0.5000204 
-0.207617 -0.555821 0.0826174 -0.3179704 0.1679418 -0.9331079 
-0.312705 -0.696529 -0.292095 0.5715239 0.5505447 0.6084909 
0.0681731 -0.866722 0.11433 0.07368819 0.3755883 -0.9238525 
-0.547867 0.118325 0.0714728 0.5822873 0.2085442 -0.7857804 
-0.23149 0.710373 -0.0152636 -0.1505784 -0.4558453 0.8772292 
0.167259 0.331627 -0.0564586 -0.9380772 -0.2811373 -0.2024185 
-0.12666 -0.357487 -0.378294 0.7103827 0.03246883 0.7030663 
-0.255418 -0.674942 0.0902103 0.1866202 0.1715993 -0.9673296 
-0.179517 0.0147539 -0.0479015 -0.007009753 -0.3885033 0.9214206 
0.568088 -0.536223 0.0116126 -0.9417422 0.09053957 0.3239202 
0.55699 -0.608304 0.110229 -0.9663148 0.2533213 -0.04543216 
-0.476081 -0.0912649 0.0290776 0.321014 0.2362528 -0.9171339 
-0.23228 -0.0534533 -0.112108 -0.2867456 -0.2918653 0.9124646 
0.596801 -0.31408 0.251117 -0.8831571 0.06117323 -0.4650715 
-0.383733 -0.539524 0.00398694 0.8311505 0.1611117 -0.5321954 
0.347608 -0.967109 -0.18592 -0.9825973 0.1778918 0.05345145 
0.0938041 -0.559403 -0.436358 0.0775276 -0.04827273 0.9958209 
-0.193272 -0.038646 -0.258017 0.8382336 -0.2335607 0.4927614 
0.482302 -0.638744 0.190353 -0.5590155 0.4016325 -0.7253916 
0.512379 -0.159157 0.153396 -0.4156021 0.1123507 -0.9025808 
0.575183 -0.531113 0.0371717 -0.940212 0.08047683 0.3309455 
-0.0459862 -0.559491 -0.433306 0.1647333 -0.03456273 0.9857324 
-0.0980511 -0.42781 -0.00865048 0.2596124 0.5335097 0.804965 
-0.20085 0.608144 -0.0876339 -0.1986916 -0.4526297 0.8692801 
-0.0543415 -0.390028 -0.0408584 -0.0858546 0.8841401 0.4592659 
-0.0672844 0.0592059 -0.212156 0.8995203 -0.4327154 0.0601709 
0.574618 -0.261706 0.340156 -0.7010014 0.213862 -0.6803383 
0.207907 -1.0074 -0.443981 -0.7369056 0.05084642 0.6740806 
0.349655 0.0287095 -0.222566 -0.3043507 -0.7004812 0.6455205 
0.145092 0.0524583 -0.26029 -0.9728096 0.05221897 0.2256428 
-0.189449 -1.12788 -0.322956 0.009672383 0.9522164 0.3052709 
0.366456 -0.33898 0.224063 -0.8248745 0.3207726 0.4654965 
-0.0407433 0.29506 -0.0735677 -0.8008137 -0.2941274 0.5217149 
0.0242271 -0.980715 0.0130312 -0.1392294 0.2959327 -0.9450074 
-0.0593492 0.0637213 -0.119978 0.3864497 0.3723089 0.8438262 
0.447258 -0.15666 -0.276746 -0.6581368 -0.719897 0.2204633 
-0.12737 -1.12584 -0.331483 0.004674343 0.9513716 0.3080104 
